X,Y,Z,Intensity
1.9109898,1.6312349,-0.7900079,0.03
1.8885541,1.6232347,-0.78200287,0.03
1.8810731,1.6282386,-0.78100556,0.03
1.8826064,1.6402444,-0.7850124,0.03
1.8631773,1.6342448,-0.7780086,0.07
1.8447338,1.6292455,-0.7720053,0.04
1.8504618,1.6402501,-0.77601165,0.04
1.8320127,1.6352508,-0.7700084,0.07
1.824523,1.6402547,-0.769011,0.04
1.8250664,1.65126,-0.77201724,0.08
1.7976216,1.6382585,-0.76200914,0.04
1.8011897,1.6512643,-0.76601654,0.16
1.8116736,1.6722727,-0.7740286,0.24
1.6756173,1.5562402,-0.7109598,0.0
1.7709768,1.6532706,-0.7590168,0.0
1.76854,1.661275,-0.7600212,0.0
1.7630758,1.667279,-0.76002437,0.0
1.7665657,1.6822855,-0.76503277,0.0
1.7591137,1.6862887,-0.76403475,0.05
1.7828686,1.7132974,-0.7770505,0.11
1.7613963,1.7052975,-0.7690453,0.27
1.7709183,1.7253051,-0.7770567,0.27
1.7804481,1.7453128,-0.784068,0.43
1.7569753,1.7353123,-0.7750616,0.2
1.7685051,1.7573204,-0.78407407,0.39
1.7610172,1.7623241,-0.7830765,0.3
1.7468034,1.7543228,-0.7780716,0.27
1.7453381,1.7643275,-0.780077,0.15
1.7388445,1.7703314,-0.78007996,0.5
1.7444094,1.7863376,-0.78508884,0.45
1.7449051,1.7993432,-0.7890959,0.18
1.8522762,1.9183781,-0.8451649,0.39
1.7219831,1.8003477,-0.7830954,0.18
1.7187371,1.8033496,-0.78309685,0.24
1.7072916,1.8033514,-0.7810963,0.1
1.690848,1.798352,-0.7750928,0.18
1.6813531,1.8013548,-0.7740939,0.2
1.6838953,1.8153605,-0.77810156,0.16
1.6774416,1.8203638,-0.7781039,0.09
1.653984,1.8083626,-0.76909626,0.09
1.6457322,1.8063629,-0.76709473,0.04
1.6412741,1.8133669,-0.7670982,0.07
1.6318119,1.8153691,-0.76609874,0.14
1.6283141,1.8243736,-0.76710325,0.25
1.6019081,1.8073708,-0.7570928,0.23
1.5934399,1.8103737,-0.7550939,0.31
1.5982008,1.8213775,-0.7590999,0.23
1.5837203,1.8183787,-0.75509745,0.2
1.5892413,1.8363853,-0.7611072,0.25
1.5827782,1.8413883,-0.76110935,0.2
1.5833344,1.853393,-0.7651156,0.24
1.5778359,1.8603969,-0.7651189,0.19
1.5723376,1.8674005,-0.7661221,0.11
1.5801257,1.881405,-0.77112985,0.2
1.5716197,1.8854077,-0.77113134,0.11
1.572189,1.8974125,-0.77413756,0.2
1.5617149,1.8984145,-0.77213734,0.11
1.5542521,1.9024173,-0.7711388,0.18
1.552778,1.9134216,-0.7741443,0.2
1.5574911,1.9264259,-0.77915126,0.09
1.5500696,1.9294282,-0.7781522,0.09
1.5495694,1.9424334,-0.78115875,0.09
1.5491105,1.9544377,-0.7851648,0.08
1.5476496,1.9654422,-0.7871702,0.09
1.5431352,1.9744462,-0.7891743,0.09
1.533666,1.9764483,-0.7871746,0.08
1.541418,1.9924531,-0.7931832,0.14
1.5279975,1.9884535,-0.78918004,0.13
1.5324751,2.00846,-0.7961904,0.04
1.5339757,2.0244656,-0.8001985,0.07
1.5295091,2.0324688,-0.802202,0.04
1.5290744,2.0444732,-0.8052079,0.07
1.5205804,2.0484757,-0.80420905,0.04
1.520329,2.055478,-0.8062125,0.0
1.518892,2.0664823,-0.80921775,0.0
1.5154058,2.076486,-0.8112223,0.0
1.5099044,2.0844893,-0.81222564,0.0
1.509448,2.0974936,-0.8162319,0.0
1.5149801,2.1185,-0.82324266,0.0
1.5104613,2.1285038,-0.82524705,0.0
1.5282184,2.1585114,-0.83726335,0.0
1.5067496,2.1455097,-0.8292548,0.0
1.5242491,2.1835196,-0.84327495,0.0
1.5098114,2.1785197,-0.83927095,0.0
1.5043285,2.186523,-0.84027416,0.0
1.5048426,2.2025278,-0.84528184,0.0
1.5053619,2.2185326,-0.8492895,0.0
1.5051339,2.2255347,-0.85129285,0.0
1.5026264,2.2385387,-0.85529864,0.0
1.4961749,2.2445414,-0.85530066,0.0
1.5036576,2.2715483,-0.8653143,0.0
1.4981906,2.2795513,-0.8663174,0.0
1.494748,2.2895546,-0.8683216,0.0
1.4972224,2.3105602,-0.8753317,0.0
1.5069705,2.3325655,-0.8833432,0.0
1.4975269,2.3345668,-0.8823429,0.0
1.4950463,2.3475707,-0.88534856,0.0
1.5015296,2.3745773,-0.89436185,0.0
1.4990574,2.3875809,-0.8983675,0.0
1.4945928,2.397584,-0.9003715,0.0
1.4953114,2.408587,-0.90337664,0.0
1.4998214,2.4325929,-0.9113882,0.0
1.501357,2.4515977,-0.917397,0.0
1.5058802,2.4756033,-0.9254086,0.0
1.50039,2.4856062,-0.9274123,0.0
1.4978863,2.50061,-0.9314187,0.0
1.5004272,2.521615,-0.9374285,0.0
1.5101777,2.54562,-0.9474407,0.0
1.5066738,2.5596237,-0.9504464,0.0
1.5111765,2.5856295,-0.9594587,0.0
1.5156872,2.6116352,-0.96747094,0.0
1.5142251,2.6276388,-0.9724778,0.0
1.5157057,2.6506438,-0.9794882,0.0
1.5142522,2.6666474,-0.984495,0.0
1.520006,2.6856515,-0.9905043,0.0
1.5254847,2.7156577,-1.0005183,0.0
1.522015,2.7296607,-1.0045239,0.0
1.5325078,2.7676685,-1.0175422,0.0
1.5430113,2.8056757,-1.0315604,0.06
1.531536,2.8076766,-1.0295594,0.04
1.524071,2.815678,-1.0315615,0.07
1.5227941,2.82568,-1.0335655,0.04
1.5153314,2.8336816,-1.0355678,0.07
1.507847,2.8426836,-1.0365702,0.15
1.4964176,2.8426836,-1.0345681,0.16
1.4859562,2.8456843,-1.0335674,0.04
1.4744778,2.8476844,-1.0325662,0.17
1.4739696,2.8696885,-1.0395753,0.2
1.4657478,2.8656878,-1.0365721,0.2
1.4493008,2.8576863,-1.0315657,0.0
1.4408474,2.8636875,-1.0315665,0.0
1.446314,2.8976932,-1.043582,0.0
1.4438332,2.9156964,-1.048589,0.0
1.4393444,2.9306989,-1.0525942,0.0
2.132337,4.275929,-1.584291,0.12
2.1198592,4.2859282,-1.5852923,0.34
2.1073966,4.2949286,-1.5862935,0.28
2.0989237,4.311929,-1.5902985,0.35
2.0864334,4.322929,-1.5913001,0.33
2.063952,4.3149257,-1.585292,0.29
2.0607216,4.324926,-1.5882952,0.35
2.0462358,4.331925,-1.5882949,0.29
2.0297973,4.331923,-1.585291,0.35
2.0222995,4.3529243,-1.5902978,0.34
2.003834,4.3509216,-1.5872928,0.32
1.9893475,4.3579206,-1.5872922,0.34
1.9798565,4.3749213,-1.5912966,0.31
1.9676538,4.3659186,-1.5862901,0.31
1.9571642,4.380919,-1.5902936,0.36
1.9466913,4.394919,-1.5922965,0.29
1.9292207,4.394916,-1.5902923,0.36
1.9097488,4.390913,-1.5862858,0.32
1.9002631,4.407913,-1.5902902,0.28
1.88904,4.4019113,-1.586285,0.36
1.8715652,4.401909,-1.5842806,0.33
1.8620816,4.4189086,-1.5882847,0.34
1.8426313,4.412905,-1.5832775,0.33
1.8301331,4.4249043,-1.5852787,0.33
1.8226557,4.4459047,-1.5912849,0.34
1.7981945,4.4299,-1.5822724,0.3
1.793949,4.4399004,-1.5852749,0.34
1.7834703,4.4549,-1.5882778,0.34
1.7630106,4.4468956,-1.5832694,0.33
1.7485362,4.4528937,-1.5832677,0.34
1.742044,4.4778943,-1.5902754,0.33
1.7215803,4.46989,-1.5852666,0.29
1.7041105,4.4688873,-1.5822614,0.36
1.6976107,4.494888,-1.5902693,0.34
1.6843927,4.482885,-1.5842611,0.33
1.6689277,4.4858828,-1.5832577,0.32
1.6584433,4.5018816,-1.5872606,0.33
1.6399913,4.496878,-1.5832534,0.37
1.624513,4.5008755,-1.5822504,0.3
1.6130149,4.515874,-1.5862523,0.32
1.6037931,4.512872,-1.5842485,0.32
1.5863174,4.5118694,-1.5812429,0.35
1.5748335,4.525868,-1.5842446,0.3
1.5573797,4.522864,-1.5812382,0.36
1.5438988,4.5318623,-1.5822374,0.34
1.5314355,4.54186,-1.584237,0.32
1.5099673,4.5298553,-1.578226,0.32
1.5047071,4.539855,-1.5802279,0.34
1.4952277,4.5588536,-1.5862317,0.32
1.4727954,4.5408483,-1.5772182,0.27
1.461294,4.556846,-1.5812201,0.36
1.4487995,4.5698442,-1.5842208,0.31
1.4313275,4.5678406,-1.5812143,0.33
1.4158572,4.5708375,-1.5802102,0.34
1.4126271,4.583837,-1.5842137,0.31
1.3931707,4.574833,-1.5792041,0.34
1.3776995,4.57783,-1.5781999,0.32
1.3682106,4.5988283,-1.5842041,0.37
1.346755,4.5838227,-1.5771915,0.27
1.3322694,4.59082,-1.5781889,0.36
1.3187823,4.6008167,-1.5801877,0.34
1.3105472,4.6008153,-1.5791849,0.33
1.2990586,4.6168127,-1.5831863,0.34
1.2835871,4.619809,-1.5821819,0.32
1.267126,4.6188054,-1.5801756,0.34
1.2516527,4.6218014,-1.5801711,0.3
1.2381892,4.6297984,-1.581169,0.35
1.2279626,4.622796,-1.5781628,0.35
1.2154597,4.637793,-1.5821635,0.34
1.1989958,4.6367893,-1.5801569,0.32
1.186525,4.648786,-1.5821564,0.38
1.1650544,4.6327806,-1.5751429,0.0
1.1465942,4.6247764,-1.5701332,0.0
0.6749357,2.992654,-0.97440505,0.0
0.6587069,2.9566507,-0.9603869,0.0
0.642258,2.935648,-0.95137364,0.0
0.6248383,2.9086447,-0.94135803,0.0
0.6104131,2.8916423,-0.93334687,0.0
0.59895635,2.8866405,-0.9313409,0.0
0.5874701,2.8836389,-0.9293355,0.0
0.5720643,2.8606362,-0.92032194,0.0
0.56880873,2.8686361,-0.9223233,0.0
0.56031215,2.876635,-0.92432266,0.0
0.54590255,2.8566327,-0.9163104,0.0
0.5354273,2.8556314,-0.915306,0.0
0.5269566,2.8616302,-0.91630465,0.0
1.57537,7.3898516,-2.5482156,0.0
1.5671324,7.4048476,-2.553217,0.0
1.5426465,7.4088383,-2.5522077,0.0
1.5191631,7.415829,-2.5531995,0.0
1.4867285,7.3808184,-2.5381742,0.0
1.4692234,7.4138103,-2.548177,0.0
1.4477214,7.431801,-2.553173,0.0
1.4222462,7.429791,-2.5501611,0.0
1.4110115,7.4337864,-2.5511575,0.0
1.3934947,7.4707775,-2.5621612,0.0
1.3710183,7.4807687,-2.5641541,0.0
1.3375691,7.441757,-2.5481265,0.0
1.3140959,7.446748,-2.5481172,0.0
1.2915992,7.4607377,-2.5511112,0.0
1.2783785,7.453733,-2.5481026,0.0
1.2588798,7.4807234,-2.5561018,0.0
1.2334061,7.4777126,-2.553089,0.0
1.2129188,7.4987035,-2.5590858,0.0
1.1774747,7.445691,-2.5390522,0.0
1.1599615,7.485682,-2.5510564,0.0
1.1344934,7.4806714,-2.5480425,0.0
1.1222491,7.482666,-2.548037,0.0
1.1007806,7.495656,-2.5510306,0.0
1.0812714,7.527646,-2.5610309,0.0
1.0557818,7.5276346,-2.560018,0.0
1.031316,7.526624,-2.5580056,0.0
1.0048385,7.5186133,-2.55399,0.0
0.98435295,7.5416026,-2.5609865,0.0
0.96814275,7.515597,-2.5509703,0.0
0.9496119,7.560586,-2.5649745,0.0
0.9201825,7.5245748,-2.5509486,0.0
0.89767957,7.5425634,-2.5569422,0.0
0.876181,7.5655527,-2.562938,0.0
0.8477229,7.540541,-2.5529156,0.0
0.8242508,7.5455303,-2.553905,0.0
0.81400675,7.5585246,-2.5579035,0.0
0.7895094,7.5655127,-2.5588925,0.0
0.5394549,7.6373873,-2.5737765,0.0
0.51496834,7.642374,-2.574764,0.0
0.5056898,7.6783667,-2.5877693,0.0
0.4802245,7.669355,-2.5837522,0.09
0.4567173,7.6903415,-2.5897446,0.19
0.43225515,7.687329,-2.5877297,0.23
0.4067697,7.685316,-2.5867143,0.0
0.38130158,7.676304,-2.5826964,0.0
0.35485104,7.6512923,-2.5736737,0.0
-0.03311507,2.656529,-0.8149741,0.0
-0.04163227,2.671526,-0.81997377,0.0
-0.047137175,2.7215211,-0.8369854,0.0
-0.051412728,2.7345188,-0.84198684,0.0
-0.060849722,2.7225173,-0.83697784,0.0
-0.06937153,2.7435133,-0.84497905,0.0
-0.0807341,2.6835146,-0.8239548,0.0
-0.10346877,2.5505192,-0.7769025,0.0
-0.1128444,2.5095203,-0.76188487,0.0
-0.116142526,2.5435169,-0.77389294,0.0
-0.96574163,3.160069,-1.0154383,0.0
-0.9711739,3.1370692,-1.0084264,0.0
-0.98767805,3.1610558,-1.017419,0.0
-0.99616694,3.1470528,-1.0134072,0.0
-1.0106277,3.1650414,-1.0203997,0.0
-1.0231173,3.1700327,-1.0233899,0.0
-0.7893662,1.7954178,-0.5351791,0.0
-0.7877807,1.7684246,-0.5261722,0.0
-0.80936956,1.8164045,-0.54416716,0.0
-0.81175345,1.8054059,-0.5411615,0.0
-0.81721723,1.8014045,-0.54015523,0.0
-0.8204868,1.7994038,-0.5391515,0.0
-0.82797265,1.8014,-0.54114515,0.0
-0.83041114,1.788402,-0.5371388,0.0
-0.8368205,1.7903988,-0.53813344,0.0
-1.3503995,3.1208253,-1.0370606,0.0
-1.3538129,3.0998266,-1.0300503,0.0
-1.3579085,3.0308354,-1.008023,0.0
-1.371377,3.0378244,-1.0120115,0.0
-1.3778418,3.0238223,-1.0080003,0.0
-1.3862947,3.0168173,-1.0069891,0.0
-1.3987893,3.018808,-1.0089768,0.0
-1.4052296,3.006806,-1.0049661,0.0
-1.4156967,3.0047982,-1.0059546,0.0
-1.4249221,3.0157897,-1.0109488,0.0
-1.4283881,2.993791,-1.0039375,0.0
-1.4368457,2.986786,-1.0029263,0.0
-1.4453031,2.9797812,-1.000915,0.0
-1.448734,2.960782,-0.9949048,0.0
-1.4531661,2.9447813,-0.99089456,0.0
-1.4594288,2.944777,-0.99088794,0.0
-1.4598361,2.919781,-0.98287874,0.0
-1.4672937,2.910777,-0.9808677,0.0
-1.473726,2.900774,-0.9788573,0.0
-1.4811871,2.89177,-0.97684616,0.0
-1.4856702,2.87377,-0.970835,0.0
-1.4880885,2.8547714,-0.9658257,0.0
-1.4893243,2.8437724,-0.9618204,0.0
-1.4987618,2.8417656,-0.9628095,0.0
-1.5012237,2.8207676,-0.9557993,0.0
-1.5066465,2.8097653,-0.9537895,0.0
-1.5070834,2.7857697,-0.9457804,0.0
-1.520595,2.7897587,-0.94876707,0.0
-1.4077711,1.8380486,-0.6305364,0.0
-1.4011097,1.8160595,-0.62253565,0.0
-1.4065852,1.8110567,-0.621527,0.0
-1.4181056,1.8150473,-0.62451476,0.0
-1.4094836,1.7890605,-0.61551464,0.0
-1.4371195,1.7870404,-0.6194804,0.0
-1.4044728,1.7230822,-0.5944939,0.0
-1.4159243,1.729072,-0.5984824,0.0
-1.5035894,1.7649952,-0.62438923,0.0
-1.5392181,1.7189788,-0.6183246,0.0
-2.2862196,2.3311574,-0.9446242,0.14
-2.279437,2.315167,-0.93862545,0.05
-2.294914,2.3181508,-0.94260573,0.18
-2.298362,2.3071487,-0.9405953,0.1
-2.2947927,2.2881556,-0.9345906,0.0
-2.307246,2.2881427,-0.93757343,0.0
-2.3127124,2.2791383,-0.9365613,0.0
-2.3091528,2.260145,-0.93055636,0.0
-2.3284295,2.2741227,-0.9385369,0.0
-2.3228607,2.2531319,-0.93153375,0.0
-2.3283317,2.2441275,-0.9305214,0.0
-2.335783,2.2381208,-0.9305079,0.0
-2.3342164,2.222125,-0.9255017,0.0
-2.3376486,2.212123,-0.92349166,0.0
-2.342088,2.2031198,-0.9224807,0.0
-2.3463664,2.1991158,-0.9224726,0.0
-2.3487968,2.1881151,-0.91946334,0.0
-2.3582625,2.1841056,-0.9214478,0.0
-2.3697348,2.1820936,-0.9234306,0.0
-2.1460958,1.7604027,-0.76051944,0.0
-2.1234908,1.7274328,-0.74653363,0.0
-2.1469579,1.7394059,-0.7555065,0.0
-2.2181602,1.7543278,-0.7764118,0.0
-2.2165725,1.7423316,-0.7734072,0.0
-2.224059,1.7373244,-0.7743935,0.0
-2.2405705,1.7403065,-0.77837104,0.0
-2.256039,1.7432891,-0.78335017,0.0
-2.2685082,1.7432756,-0.78633183,0.0
-2.2649293,1.7292819,-0.78232896,0.0
-2.2932324,1.7482481,-0.7932984,0.0
-2.7580388,1.7087181,-0.9065691,0.0
-4.8119936,2.981058,-1.7492193,0.34
-4.8104424,2.9590588,-1.7442058,0.27
-4.821882,2.9470427,-1.7451788,0.29
-4.836346,2.9360225,-1.7471477,0.38
-4.84679,2.923008,-1.7471213,0.39
-4.8582497,2.9099917,-1.7480935,0.29
-4.8664846,2.9049804,-1.7490765,0.3
-4.880946,2.8939602,-1.7510452,0.3
-4.900417,2.8859332,-1.7550079,0.34
-4.9128904,2.872915,-1.756978,0.28
-4.922339,2.8589013,-1.7569524,0.3
-4.9317865,2.8448877,-1.7569267,0.3
-4.939226,2.8298764,-1.7559035,0.32
-4.951697,2.8168585,-1.7568734,0.32
-4.9609213,2.8128457,-1.7588556,0.32
-4.9693766,2.7978332,-1.7588305,0.32
-4.9778323,2.7828202,-1.7588054,0.32
-4.9922857,2.7717998,-1.7607735,0.31
-5.002746,2.7577844,-1.7607459,0.27
-5.0222263,2.7487571,-1.7647072,0.38
-5.0246615,2.730752,-1.7626895,0.27
-5.0318756,2.7257419,-1.7636739,0.36
-5.0493455,2.7157173,-1.7666377,0.33
-5.06181,2.7026992,-1.7676073,0.33
-5.061248,2.6826982,-1.7635927,0.31
-5.0747046,2.6706786,-1.7655613,0.3
-5.090166,2.6596563,-1.7685275,0.33
-5.09641,2.6526465,-1.7695117,0.31
-5.099838,2.6356404,-1.7674928,0.33
-5.122326,2.6276088,-1.7724496,0.33
-5.133773,2.6145916,-1.7734207,0.3
-5.1372013,2.5975854,-1.7714015,0.28
-5.1446633,2.5815732,-1.7713765,0.32
-5.1661315,2.5735426,-1.7763349,0.43
-5.1643553,2.5625443,-1.773329,0.29
-5.1808233,2.5515199,-1.7772931,0.35
-5.191277,2.5375042,-1.7772646,0.29
-5.204725,2.5254843,-1.7792327,0.32
-5.2161922,2.5114665,-1.7812026,0.31
-5.2326546,2.5004423,-1.7841665,0.31
-5.2431064,2.486426,-1.7851379,0.31
-5.2473426,2.4784193,-1.7851243,0.31
-5.2547784,2.463407,-1.7850997,0.31
-5.275241,2.4543777,-1.7890584,0.32
-5.2896957,2.4423559,-1.7920247,0.31
-5.3001685,2.4273393,-1.792995,0.34
-5.302609,2.4093337,-1.7909762,0.32
-5.3218465,2.4093065,-1.7969441,0.31
-5.321272,2.3903055,-1.7929294,0.32
-5.336758,2.3772821,-1.7958928,0.3
-5.3532085,2.3662574,-1.7988563,0.31
-5.3576508,2.3492491,-1.7978348,0.28
-5.3700976,2.3362298,-1.799803,0.39
-5.395582,2.328193,-1.8057538,0.3
-5.3817873,2.3122103,-1.7997634,0.25
-5.3762283,2.2902153,-1.7947541,0.35
-5.4046993,2.2841742,-1.8027015,0.35
-5.419165,2.2711523,-1.8046663,0.44
-5.4366193,2.2601256,-1.8086277,0.33
-5.4540715,2.2490993,-1.8125892,0.31
-5.453526,2.2290974,-1.8095729,0.31
-5.4697537,2.2270744,-1.813544,0.31
-5.4802175,2.212057,-1.8155136,0.28
-5.478661,2.192057,-1.811499,0.29
-5.4931216,2.1790342,-1.8144635,0.31
-5.517575,2.1709976,-1.8214154,0.29
-5.504005,2.146014,-1.8134168,0.26
-5.5514936,2.1469457,-1.8283377,0.3
-5.5797715,2.1479053,-1.8372908,0.38
-5.5952115,2.1358812,-1.8412544,0.36
-5.6236925,2.1278386,-1.8491992,0.33
-5.63915,2.1148145,-1.8521616,0.42
-5.641587,2.0968087,-1.8501418,0.35
-5.6540585,2.0817883,-1.8521075,0.43
-5.6715097,2.069761,-1.8560674,0.38
-5.665726,2.057768,-1.8520665,0.42
-5.6831765,2.0457408,-1.8560264,0.32
-5.707649,2.0357034,-1.8629761,0.34
-5.713091,2.0186932,-1.8619517,0.41
-5.7195444,2.001681,-1.8619256,0.34
-5.7320094,1.9866607,-1.8638911,0.35
-5.7262073,1.9756672,-1.8608911,0.22
-5.7316737,1.9576566,-1.8598657,0.29
-5.7391143,1.9416428,-1.8608387,0.0
-5.754559,1.9286183,-1.8638006,0.0
-5.797071,1.923555,-1.8777237,0.0
-5.9206495,1.4712915,-1.8670917,0.0
-5.8450065,1.4333969,-1.8381857,0.05
-5.8272133,1.4194212,-1.830203,0.15
-5.852689,1.4073805,-1.8381475,0.16
-5.837109,1.3853999,-1.8301533,0.16
-5.849561,1.3703783,-1.8331174,0.16
-5.8520145,1.3523712,-1.8320959,0.04
-5.847445,1.3333743,-1.8290854,0.0
-5.8528957,1.3163629,-1.8290595,0.0
-5.8621297,1.3093474,-1.8320367,0.0
-5.8705754,1.2933317,-1.8330066,0.0
-5.86802,1.2743322,-1.8299927,0.0
-5.8754606,1.2583172,-1.8319641,0.0
-5.881916,1.2413046,-1.8319364,0.0
-5.8643413,1.2193266,-1.8239453,0.0
-5.892816,1.2072812,-1.8328842,0.0
-5.8980193,1.2002721,-1.8338684,0.0
-5.8964744,1.1812705,-1.8318524,0.0
-5.919936,1.1682324,-1.8387989,0.0
-5.914367,1.1492367,-1.8357898,0.0
-5.918809,1.1322265,-1.8357654,0.0
-5.9422894,1.1181881,-1.8427107,0.0
-5.933703,1.0991974,-1.8377068,0.0
-5.9429526,1.0911815,-1.8406827,0.0
-5.9653974,1.0781447,-1.8476309,0.0
-5.957844,1.0581518,-1.8436241,0.0
-4.970577,-1.3173951,-1.8393066,0.0
-4.9450536,-1.3284367,-1.8312606,0.0
-4.967278,-1.3424072,-1.839299,0.0
-4.9417844,-1.3544492,-1.8312528,0.0
-4.924262,-1.3674787,-1.8272208,0.0
-4.926734,-1.3854799,-1.829224,0.0
-4.928238,-1.4044827,-1.8312252,0.0
-4.920728,-1.4204986,-1.8292108,0.0
-4.912197,-1.4355153,-1.8281945,0.0
-4.912439,-1.4445171,-1.8291943,0.0
-4.9159274,-1.4635173,-1.831199,0.0
-4.9364142,-1.4874921,-1.8412335,0.0
-4.9058943,-1.4965407,-1.8311788,0.0
-4.8953805,-1.5115603,-1.829159,0.03
-4.9018674,-1.5315557,-1.833169,0.03
-4.9083524,-1.551551,-1.837179,0.03
-4.9155893,-1.5625432,-1.840191,0.07
-4.8910823,-1.5735826,-1.8331467,0.04
-4.9065714,-1.5965654,-1.8401724,0.07
-4.9020357,-1.6125762,-1.8401632,0.08
-4.8885217,-1.6266,-1.8371382,0.09
-4.887015,-1.6446068,-1.8381342,0.09
-4.87825,-1.6506218,-1.8351182,0.0
-4.8717313,-1.6666352,-1.8351054,0.0
-4.870224,-1.6846421,-1.8361014,0.0
-4.895692,-1.7106104,-1.8471447,0.0
-4.798792,-2.140854,-1.862941,0.04
-4.7942715,-2.157864,-1.8639318,0.16
-4.78275,-2.1718843,-1.8619105,0.23
-4.77823,-2.1888943,-1.8629011,0.24
-4.785457,-2.2008865,-1.8659132,0.29
-4.7719574,-2.214909,-1.8638883,0.27
-4.7634296,-2.2299247,-1.862872,0.29
-4.7689238,-2.2519212,-1.8678802,0.3
-4.7723875,-2.2719202,-1.8718851,0.3
-4.7608676,-2.28594,-1.8698636,0.3
-4.757358,-2.303949,-1.8708562,0.28
-4.760596,-2.3149462,-1.8738612,0.3
-4.7630925,-2.335947,-1.8768643,0.29
-4.748581,-2.348971,-1.8738376,0.29
-4.742054,-2.3649838,-1.873825,0.29
-4.7435327,-2.3849852,-1.8778262,0.3
-4.7310243,-2.3990064,-1.8758031,0.29
-4.724497,-2.4150188,-1.8757905,0.29
-4.7207384,-2.423026,-1.8757833,0.3
-4.713222,-2.43904,-1.8757689,0.28
-4.721688,-2.462032,-1.8817825,0.31
-4.702191,-2.4730628,-1.8767473,0.28
-4.695663,-2.4890754,-1.8767346,0.29
-4.698147,-2.5100756,-1.8807378,0.33
-4.6943884,-2.5180826,-1.8807305,0.29
-4.6888456,-2.5340936,-1.8817198,0.29
-4.6813273,-2.5501072,-1.8817055,0.28
-4.679833,-2.5701132,-1.8837016,0.29
-4.672314,-2.586127,-1.8836874,0.28
-4.6747913,-2.6071274,-1.8876904,0.32
-4.662262,-2.620148,-1.8856674,0.28
-4.6645226,-2.6321464,-1.8886708,0.33
-4.666996,-2.6531467,-1.892674,0.3
-4.6604614,-2.669159,-1.8936615,0.28
-4.650942,-2.6841753,-1.8926437,0.3
-4.6484284,-2.7031822,-1.8946383,0.31
-4.634912,-2.716204,-1.8926135,0.3
-4.6323967,-2.735211,-1.8946081,0.3
-4.631621,-2.7442136,-1.8956062,0.32
-4.626118,-2.7622242,-1.8975956,0.32
-4.611593,-2.7742472,-1.8945692,0.28
-4.5870585,-2.7802832,-1.8875253,0.2
-4.5625496,-2.7873192,-1.8814816,0.34
-4.5640273,-2.8083205,-1.8854831,0.41
-4.585286,-2.8312943,-1.8955196,0.41
-4.586759,-2.8522954,-1.8995212,0.29
-4.5832276,-2.8703034,-1.9015142,0.33
-4.5697136,-2.8833249,-1.8994896,0.32
-4.5771933,-2.9083178,-1.9065017,0.32
-4.565675,-2.9223363,-1.9054805,0.3
-4.56214,-2.940344,-1.9074736,0.31
-4.547388,-2.9423654,-1.9034473,0.31
-4.411831,-2.880548,-1.8502103,0.0
-2.3961358,-1.6822131,-1.024698,0.0
-4.54135,-2.98038,-1.907435,0.0
-2.3825908,-1.6852316,-1.0206736,0.0
-2.314519,-1.6663222,-0.99655354,0.16
-2.2197084,-1.6124471,-0.9583881,0.0
-2.274183,-1.6573759,-0.9824822,0.0
-2.2696352,-1.6653823,-0.98247355,0.0
-2.2421074,-1.6594185,-0.97342485,0.0
-2.2516086,-1.6774063,-0.9794407,0.0
-2.231072,-1.6754338,-0.9724042,0.0
-2.2102952,-1.6674613,-0.9643677,0.0
-2.1957319,-1.6684805,-0.96034163,0.0
-2.1771972,-1.667505,-0.9543087,0.0
-2.16467,-1.6705214,-0.9512862,0.0
-2.148131,-1.6705432,-0.9462567,0.0
-2.1405969,-1.6765531,-0.94524294,0.0
-2.122079,-1.6755774,-0.93921006,0.0
-2.1023018,-1.667603,-0.9321753,0.0
-2.0837512,-1.6656272,-0.92614233,0.0
-2.0772,-1.671636,-0.92513037,0.0
-2.0696776,-1.6776456,-0.9241166,0.0
-2.038135,-1.6666864,-0.9130611,0.0
-2.0445914,-1.6816783,-0.9170717,0.0
-2.0180838,-1.6747124,-0.9080249,0.0
-1.9952976,-1.6637421,-0.89898497,0.0
-1.9997703,-1.677736,-0.9029922,0.0
-1.9782145,-1.6727637,-0.89595413,0.0
-1.9656898,-1.6747795,-0.89293176,0.0
-1.9581449,-1.6797894,-0.8909181,0.0
-1.936604,-1.6748168,-0.88388,0.0
-1.9270821,-1.678829,-0.8818629,0.0
-1.9183172,-1.6778398,-0.87984735,0.0
-1.8957798,-1.6718687,-0.8718076,0.0
-1.8942279,-1.6808704,-0.8728044,0.0
-1.8847144,-1.6848823,-0.8707873,0.0
-1.8621486,-1.677911,-0.86274755,0.0
-1.8466215,-1.6769308,-0.85772,0.0
-1.8528559,-1.6869226,-0.86173064,0.0
-1.8333331,-1.6829468,-0.85569614,0.0
-1.8197922,-1.6829638,-0.8516721,0.0
-1.8122289,-1.6869735,-0.84965855,0.0
-1.7896928,-1.6800017,-0.84161884,0.0
-1.7811666,-1.6840119,-0.8406036,0.0
-1.7766372,-1.6910172,-0.8405953,0.0
-1.7658374,-1.6870308,-0.8365763,0.0
-1.7593337,-1.6930382,-0.83656454,0.0
-1.7427883,-1.6900591,-0.83053535,0.0
-1.7292293,-1.6890757,-0.8265113,0.0
-1.7157176,-1.6890924,-0.8224874,0.0
-1.7131674,-1.6970946,-0.8244826,0.0
-1.7016346,-1.6981089,-0.8204621,0.0
-1.6858556,-1.6901287,-0.81443447,0.0
-1.6823449,-1.6981322,-0.815428,0.0
-1.6628038,-1.6921564,-0.80839366,0.0
-1.67725,-1.7141373,-0.8174186,0.0
-1.6447115,-1.6971779,-0.8043615,0.0
-1.6501776,-1.7121701,-0.80937076,0.0
-1.6223832,-1.6932049,-0.7973222,0.0
-1.5524052,-1.6992875,-0.7791986,0.0
-1.5488646,-1.7062908,-0.7801922,0.0
-1.5192922,-1.6893271,-0.7681404,0.0
-1.24771,-1.6956311,-0.69866455,0.0
-1.207844,-1.6776766,-0.68359494,0.07
-1.2313794,-1.714646,-0.6986365,0.0
-0.6492302,-1.7501767,-0.58065766,0.0
-0.6193923,-1.7002105,-0.5606029,0.0
-0.5732805,-1.7412345,-0.56453466,0.0
-0.56671983,-1.7402393,-0.563524,0.0
-0.691663,-2.782951,-0.9159095,0.0
-0.68810177,-2.7979512,-0.9209077,0.0
-0.6755971,-2.7909615,-0.916888,0.0
-0.6680406,-2.7949667,-0.9168779,0.0
-0.6665411,-2.819964,-0.92488116,0.0
-0.66900617,-2.8549566,-0.93689245,0.0
-0.6605017,-2.8599617,-0.93788135,0.0
-0.6627359,-2.880957,-0.94488925,0.0
-0.6522129,-2.878965,-0.9428737,0.0
-0.65063995,-2.9009628,-0.9498764,0.0
-0.6481211,-2.9239607,-0.957878,0.0
-0.6415889,-2.933964,-0.959871,0.0
-0.14929649,-1.7934598,-0.5269111,0.0
-0.14352676,-1.7804648,-0.52189994,0.0
-0.1399319,-1.7854654,-0.5228962,0.0
-0.13445532,-1.7884666,-0.52388936,0.0
-0.12789886,-1.7824706,-0.52087885,0.0
-0.121345036,-1.7764741,-0.51886845,0.0
-0.11882401,-1.7904725,-0.5228685,0.0
-0.111249685,-1.7784774,-0.51885515,0.0
-0.106511846,-1.7704812,-0.5148467,0.0
-0.10093914,-1.7674837,-0.5138384,0.0
-0.09635498,-1.7684851,-0.51383245,0.0
-0.09183615,-1.7734859,-0.5148276,0.0
-0.0883777,-1.7874843,-0.5198265,0.0
-0.078749314,-1.7604929,-0.50980663,0.0
-0.07825046,-1.787488,-0.5188129,0.06
-0.077481546,-1.7974861,-0.52281445,0.18
-0.06996519,-1.7874907,-0.5188018,0.11
-0.06140246,-1.7684975,-0.51078546,0.2
-0.05889246,-1.785495,-0.5167865,0.05
-0.054334268,-1.7884958,-0.5177813,0.08
-0.052856855,-1.8144915,-0.52678615,0.0
-0.04322418,-1.7835006,-0.5147653,0.0
-0.03841907,-1.7685047,-0.5097551,0.0
-0.03590576,-1.7865022,-0.5157565,0.0
-0.030400021,-1.787504,-0.5157495,0.0
-0.023897042,-1.7825068,-0.5137397,0.0
-0.018316662,-1.7775095,-0.5117311,0.0
-0.015759347,-1.7935075,-0.51673204,0.0
-0.010019397,-1.7755122,-0.5107198,0.0
0.40365332,-4.550368,-1.478047,0.0
0.43074855,-4.543381,-1.476017,0.0
0.44429842,-4.542388,-1.4760027,0.0
0.45882884,-4.551394,-1.4789904,0.0
0.47335067,-4.5524006,-1.4799757,0.0
0.48014286,-4.5634027,-1.4839721,0.0
0.49268898,-4.538411,-1.474952,0.0
0.50820285,-4.5544167,-1.4809409,0.0
0.5207561,-4.5364237,-1.474923,0.0
0.53530943,-4.5544286,-1.4819136,0.0
0.5508263,-4.5684347,-1.486902,0.0
0.56040156,-4.516443,-1.4688776,0.0
0.57115483,-4.566444,-1.4868811,0.0
0.5866686,-4.5764494,-1.4908687,0.0
0.5952381,-4.5134587,-1.4688421,0.0
0.61774105,-4.6124606,-1.5038483,0.0
0.6282947,-4.5714684,-1.4908261,0.0
0.6338807,-4.4854774,-1.4607961,0.0
0.637673,-4.456481,-1.4507841,0.0
0.65420854,-4.487486,-1.4617769,0.0
0.6707394,-4.5144906,-1.4717685,0.0
0.6862608,-4.5254965,-1.4767566,0.0
0.70977527,-4.6164994,-1.50876,0.0
0.7193295,-4.5735064,-1.4947386,0.0
0.7298787,-4.541513,-1.4837195,0.0
0.7326774,-4.5095162,-1.4727076,0.0
0.74223423,-4.4735227,-1.4606885,0.0
0.5607354,-2.933554,-0.91642356,0.0
0.55836064,-2.8495576,-0.8874019,0.0
0.566899,-2.8485596,-0.8873935,0.0
0.5724483,-2.8245623,-0.87938136,0.0
0.5849441,-2.8495643,-0.88837665,0.0
0.5837459,-2.810566,-0.87436676,0.0
0.59428245,-2.8255675,-0.8803611,0.0
0.6107755,-2.8785696,-0.8993606,0.0
0.64478797,-2.9875736,-0.9393597,0.0
0.65730065,-3.007576,-0.9463538,0.0
0.66385025,-2.9905782,-0.941343,0.0
0.66764444,-2.9885793,-0.94033897,0.0
0.6721898,-2.9585814,-0.93032646,0.0
0.67776763,-2.940583,-0.92531633,0.0
0.69127834,-2.9655857,-0.9343111,0.0
0.6948401,-2.9335876,-0.9232989,0.0
0.70438653,-2.9375896,-0.9252915,0.0
1.0332221,-4.575626,-1.511452,0.0
3.1759665,-4.6350465,-1.8211123,0.02
3.178744,-4.624046,-1.81811,0.13
3.235266,-4.678058,-1.8450912,0.23
3.2488077,-4.6670575,-1.8450844,0.27
3.2423806,-4.6280513,-1.8320835,0.28
3.273904,-4.6430554,-1.8430717,0.29
3.2814581,-4.6240535,-1.839067,0.3
3.3009846,-4.6210546,-1.8420587,0.28
3.3107703,-4.621055,-1.8440547,0.38
3.3303134,-4.6190567,-1.8470466,0.33
3.3458414,-4.610056,-1.8480395,0.31
3.3663955,-4.6100574,-1.8520314,0.31
3.3649457,-4.578052,-1.8430294,0.28
3.3785007,-4.568051,-1.8430232,0.3
3.3952599,-4.576053,-1.8490173,0.38
3.4028077,-4.5570507,-1.8450129,0.3
3.4123566,-4.5410485,-1.8420081,0.28
3.4428859,-4.553053,-1.8519973,0.34
3.4444368,-4.526048,-1.8449948,0.32
3.4619691,-4.5200477,-1.8469878,0.29
3.4775286,-4.5130477,-1.8479815,0.29
3.475295,-4.4950438,-1.8429812,0.31
3.485835,-4.480042,-1.8409765,0.32
3.5063832,-4.479043,-1.8449688,0.29
3.513938,-4.4610395,-1.840965,0.3
3.5274765,-4.450038,-1.8409595,0.34
3.5480123,-4.448039,-1.8449521,0.37
3.5477927,-4.4340363,-1.8409514,0.33
3.563338,-4.426035,-1.8429456,0.33
3.5788834,-4.418034,-1.8439398,0.3
3.586434,-4.4000306,-1.8409363,0.29
3.604966,-4.395031,-1.8429296,0.31
3.6185048,-4.384029,-1.8429246,0.26
3.6230662,-4.3630247,-1.8389223,0.29
3.6328468,-4.362025,-1.8409189,0.32
3.6533892,-4.360025,-1.8449118,0.31
3.662928,-4.3440223,-1.8429081,0.31
3.6774793,-4.335021,-1.8429031,0.3
3.6850076,-4.316017,-1.8399001,0.27
3.69456,-4.301014,-1.8378966,0.29
3.7001092,-4.2810097,-1.8338945,0.3
3.721885,-4.294013,-1.8428876,0.3
3.7264366,-4.2730083,-1.8378859,0.31
3.7399578,-4.261006,-1.8378813,0.25
3.747514,-4.244003,-1.8348787,0.27
3.7640593,-4.2370014,-1.8368735,0.31
3.7646003,-4.2109957,-1.830873,0.28
3.7893782,-4.2269993,-1.8408656,0.38
3.7949212,-4.206995,-1.8368638,0.32
3.805449,-4.191992,-1.8348604,0.31
3.8219965,-4.1849904,-1.8368555,0.31
3.8325593,-4.1719875,-1.8368524,0.29
3.8441012,-4.1589847,-1.835849,0.32
3.866638,-4.1579847,-1.8408425,0.32
3.8584116,-4.1359787,-1.832845,0.28
3.8689723,-4.122976,-1.832842,0.24
3.884506,-4.1139736,-1.8338377,0.38
3.8960295,-4.0999703,-1.8328346,0.32
3.8976033,-4.0779653,-1.8278345,0.39
3.91114,-4.0669622,-1.828831,0.37
3.9019215,-4.0449567,-1.8208339,0.34
3.911461,-4.0299525,-1.8188317,0.41
3.9300086,-4.024951,-1.8228267,0.31
3.9175525,-3.9869413,-1.809831,0.32
3.9560807,-4.0019455,-1.8228203,0.42
3.9966319,-4.0199504,-1.8378091,0.28
3.9861875,-3.9849408,-1.8268129,0.31
3.9969447,-3.9829402,-1.8288102,0.28
4.019478,-3.9809396,-1.8338045,0.27
4.015042,-3.9529321,-1.8258067,0.29
4.0275793,-3.9409287,-1.825804,0.38
4.054115,-3.942929,-1.8327973,0.37
4.0696545,-3.9339263,-1.8347938,0.34
4.076212,-3.9169216,-1.832793,0.29
4.087973,-3.9159212,-1.8347902,0.29
4.095512,-3.8989165,-1.8327893,0.31
4.112072,-3.8919144,-1.8357856,0.27
4.1336164,-3.8889132,-1.8407807,0.36
4.126164,-3.8579042,-1.8307843,0.28
4.14669,-3.8529027,-1.8347797,0.3
4.1742435,-3.8559031,-1.8427732,0.33
4.1650095,-3.834897,-1.8357768,0.28
4.1725636,-3.818892,-1.8337761,0.29
4.1881075,-3.8098893,-1.8357732,0.28
4.200649,-3.7978854,-1.8367714,0.36
4.207181,-3.77988,-1.8337712,0.29
4.22573,-3.7738779,-1.8367677,0.3
4.223516,-3.7608738,-1.8337692,0.28
4.2470365,-3.7578726,-1.8387643,0.33
4.2525854,-3.7398667,-1.8367647,0.29
4.2561483,-3.720861,-1.8327655,0.33
4.264681,-3.7048557,-1.831765,0.3
4.291232,-3.7058554,-1.8387595,0.34
4.2967587,-3.686849,-1.8367602,0.32
4.2955413,-3.6748457,-1.8327615,0.3
4.321075,-3.6738443,-1.8397565,0.3
4.3246145,-3.653838,-1.8367579,0.3
4.3371563,-3.6418338,-1.8367566,0.32
4.355696,-3.6348307,-1.8407537,0.31
4.3622417,-3.617825,-1.8387542,0.31
4.366016,-3.6098225,-1.8377544,0.26
4.3855605,-3.6038198,-1.8417513,0.36
4.386106,-3.5818126,-1.8367537,0.3
4.3966627,-3.568808,-1.8367532,0.31
4.428191,-3.5718079,-1.846747,0.38
4.4287343,-3.5498006,-1.8417497,0.32
4.4432864,-3.5397968,-1.8437482,0.32
4.4520383,-3.5347948,-1.8447472,0.29
4.456594,-3.5167885,-1.8427488,0.33
4.470143,-3.5057843,-1.8437479,0.27
4.4776893,-3.4897783,-1.8427485,0.33
4.4822216,-3.4707718,-1.8397503,0.35
4.499768,-3.4627683,-1.8427484,0.34
4.503541,-3.4547653,-1.8427489,0.33
4.513073,-3.4397597,-1.8417495,0.3
4.5226264,-3.4257545,-1.8417499,0.36
4.551166,-3.4257534,-1.8497452,0.46
4.561705,-3.4117482,-1.8497455,0.34
4.5642457,-3.3917408,-1.8467482,0.31
4.5897765,-3.3887386,-1.8527446,0.34
4.5945544,-3.381736,-1.8527449,0.3
4.599105,-3.3637292,-1.8507471,0.3
4.6176453,-3.3557255,-1.8547455,0.34
4.6251893,-3.3397195,-1.852747,0.25
4.645722,-3.332716,-1.857745,0.36
4.645263,-3.310708,-1.8527488,0.29
4.6668243,-3.305705,-1.8577465,0.36
4.6755843,-3.3007028,-1.8597461,0.27
4.6911345,-3.2906985,-1.8617456,0.34
4.7056794,-3.2796938,-1.8637455,0.36
4.7182136,-3.2666883,-1.865746,0.39
4.731755,-3.254683,-1.8667464,0.35
4.7352953,-3.2356758,-1.8637494,0.29
4.752067,-3.2366753,-1.8697469,0.36
4.752609,-3.2156672,-1.8657507,0.33
4.762145,-3.200661,-1.8657522,0.33
4.770696,-3.185655,-1.8647541,0.3
4.769242,-3.1636467,-1.8597584,0.31
4.7777915,-3.1486404,-1.8597603,0.3
4.7813272,-3.1296327,-1.8577636,0.32
4.7800827,-3.117628,-1.8547661,0.37
4.787646,-3.1026218,-1.8547683,0.31
4.7901917,-3.0836143,-1.851772,0.38
4.810721,-3.07561,-1.8557711,0.47
4.8312526,-3.0676057,-1.8607703,0.34
4.830797,-3.0465975,-1.8567749,0.3
4.8363433,-3.0295904,-1.8557779,0.29
4.8421288,-3.0235877,-1.8557785,0.3
4.8456583,-3.0045798,-1.8537823,0.28
4.851203,-2.9875727,-1.8527853,0.28
4.854752,-2.969565,-1.850789,0.29
4.8622904,-2.953558,-1.8497918,0.31
4.867833,-2.9365509,-1.848795,0.31
4.865616,-2.9255464,-1.8457979,0.3
4.8741612,-2.9105396,-1.8458004,0.31
4.8766975,-2.891532,-1.8428046,0.29
4.8772373,-2.8715234,-1.8398092,0.31
4.8867903,-2.857517,-1.8408116,0.29
4.897307,-2.8425102,-1.8408142,0.29
4.9008493,-2.8245025,-1.8388183,0.29
4.9116373,-2.8215005,-1.8418181,0.29
4.921168,-2.8064935,-1.8428208,0.29
4.9217253,-2.7874856,-1.8388256,0.31
4.9232693,-2.7684772,-1.8368301,0.3
4.924811,-2.749469,-1.8338349,0.28
4.9413414,-2.7384634,-1.8368362,0.29
4.942101,-2.728459,-1.8358387,0.32
4.9486456,-2.7124517,-1.8348423,0.29
4.966189,-2.7024462,-1.8388435,0.29
4.966718,-2.6824377,-1.8358487,0.31
4.9722753,-2.6664302,-1.8348525,0.3
4.983826,-2.6534238,-1.8368552,0.29
4.9853635,-2.6344154,-1.8338602,0.29
4.984122,-2.6234105,-1.8318632,0.29
4.9936743,-2.6094038,-1.8328664,0.28
4.9992065,-2.592396,-1.8318707,0.29
4.9857593,-2.5663853,-1.8228791,0.27
5.003284,-2.5553792,-1.8268808,0.3
5.010837,-2.5403721,-1.8268845,0.32
5.019612,-2.5353692,-1.8288854,0.29
5.0201554,-2.5163608,-1.8268908,0.3
5.028696,-2.5013533,-1.8268945,0.29
5.0142255,-2.4743419,-1.8189036,0.25
5.035777,-2.4663367,-1.8239045,0.31
5.0473065,-2.4523296,-1.8259078,0.3
5.054859,-2.4373226,-1.8259119,0.27
5.037629,-2.419315,-1.8179184,0.3
5.043179,-2.4033074,-1.8169229,0.32
5.0677023,-2.3953023,-1.823924,0.33
5.0742416,-2.3792944,-1.8239285,0.3
5.0697856,-2.3582852,-1.8189353,0.3
5.087321,-2.3472788,-1.8229376,0.3
5.0800877,-2.334273,-1.8189422,0.31
5.0836353,-2.3172648,-1.8179474,0.29
5.0881953,-2.3012571,-1.8169522,0.3
5.0867243,-2.2812476,-1.8139588,0.28
5.0932612,-2.2652397,-1.8139637,0.28
5.1048164,-2.2522328,-1.8159672,0.31
5.0983477,-2.230223,-1.8109748,0.29
5.0981045,-2.220218,-1.8099781,0.28
5.107657,-2.2062106,-1.8109823,0.3
5.1032114,-2.1862013,-1.8069892,0.29
5.1067286,-2.1681924,-1.8059951,0.31
5.1182847,-2.1551855,-1.807999,0.29
5.1158147,-2.135176,-1.8040059,0.27
5.1273465,-2.1211684,-1.8060102,0.3
5.125121,-2.1111636,-1.8040137,0.27
5.1206684,-2.091154,-1.8000209,0.3
5.1282163,-2.0761464,-1.8010259,0.29
5.144748,-2.0641394,-1.8050293,0.31
5.1312833,-2.0401285,-1.7980385,0.29
5.1358356,-2.0241203,-1.7970439,0.29
5.1475925,-2.019117,-1.8000453,0.3
5.1321416,-1.9951061,-1.7920544,0.29
5.1466703,-1.9820987,-1.7960587,0.28
5.152212,-1.9660906,-1.7960643,0.28
5.149755,-1.9470812,-1.7920712,0.3
5.1602983,-1.9330736,-1.794076,0.29
5.1638336,-1.9160647,-1.7940822,0.29
5.156597,-1.9040592,-1.790087,0.3
5.167141,-1.8900515,-1.7920918,0.29
5.1676774,-1.8720424,-1.7900987,0.26
5.164223,-1.853033,-1.7861059,0.32
5.1657734,-1.8360243,-1.7851124,0.31
5.181299,-1.8230168,-1.7891167,0.3
5.1778426,-1.8040072,-1.7861242,0.29
5.1826196,-1.7970034,-1.7861267,0.31
5.1801534,-1.7779937,-1.7841343,0.28
5.183684,-1.7609848,-1.7831409,0.29
5.2012205,-1.7489777,-1.7881451,0.32
5.1917605,-1.7279674,-1.7821536,0.28
5.195316,-1.7119589,-1.7821598,0.3
5.1780744,-1.6969521,-1.7741662,0.32
5.202606,-1.6869456,-1.7821696,0.27
5.187164,-1.664935,-1.7741789,0.27
5.2026954,-1.6519274,-1.7781838,0.32
5.20223,-1.6339179,-1.776191,0.29
5.208785,-1.6189097,-1.777197,0.31
5.215314,-1.602901,-1.7782035,0.3
5.212079,-1.5928959,-1.7762076,0.28
5.210619,-1.5748864,-1.7742151,0.32
5.217173,-1.5598783,-1.7742212,0.3
5.2127094,-1.5408684,-1.7712293,0.3
5.211247,-1.522859,-1.7692368,0.3
5.2197857,-1.5078506,-1.770243,0.29
5.229318,-1.4928422,-1.7722492,0.3
5.2220826,-1.4818367,-1.769254,0.29
5.2226286,-1.4648275,-1.7682613,0.3
5.2191772,-1.4468181,-1.7652692,0.3
5.237697,-1.4338102,-1.7702744,0.29
5.2292547,-1.4148005,-1.7662827,0.3
5.2367754,-1.3987916,-1.7672895,0.3
5.231547,-1.3887864,-1.7652941,0.31
5.2300777,-1.3707768,-1.763302,0.29
5.2286344,-1.3537678,-1.7613094,0.29
5.230169,-1.3367584,-1.760317,0.28
5.23071,-1.3197491,-1.7593244,0.29
5.2452383,-1.3057408,-1.7633306,0.32
5.2380185,-1.2957358,-1.759335,0.28
5.239552,-1.2787265,-1.7593427,0.29
5.2410855,-1.2617172,-1.7583503,0.29
5.2486343,-1.2467088,-1.759357,0.28
5.2391562,-1.226698,-1.7553663,0.28
5.243696,-1.2106892,-1.7553735,0.31
5.2492304,-1.1946802,-1.7563807,0.28
5.253018,-1.1876762,-1.757384,0.31
5.2505474,-1.1696664,-1.7553923,0.3
5.261079,-1.1546577,-1.7573991,0.31
5.252615,-1.1356475,-1.753408,0.31
5.2581496,-1.1196384,-1.7544154,0.29
5.2497096,-1.1016289,-1.750424,0.31
5.254249,-1.0856199,-1.7514315,0.28
5.254006,-1.0766149,-1.7504357,0.3
5.2625504,-1.0616063,-1.7524427,0.31
5.2540793,-1.0425961,-1.7484518,0.32
5.258619,-1.026587,-1.7494594,0.27
5.256168,-1.0095775,-1.7474676,0.28
5.2646866,-0.9935683,-1.7494752,0.28
5.258473,-0.9845636,-1.7464796,0.29
5.260995,-0.967554,-1.7464877,0.3
5.2545342,-0.94954413,-1.7434965,0.28
5.266066,-0.9345353,-1.7465038,0.31
5.2626166,-0.9175259,-1.7445121,0.3
5.267156,-0.9015168,-1.74552,0.31
5.2616873,-0.88350683,-1.7425288,0.3
5.2614408,-0.87450176,-1.7415333,0.29
5.2649846,-0.8584926,-1.7425412,0.3
5.2635226,-0.8414831,-1.7415496,0.27
5.2590733,-0.8244737,-1.738558,0.32
5.2555904,-0.8064636,-1.736567,0.29
5.25515,-0.79045457,-1.7355751,0.23
5.2638927,-0.7824498,-1.738579,0.33
5.2734394,-0.767441,-1.7415866,0.27
5.2599673,-0.7484306,-1.7355962,0.29
5.258502,-0.731421,-1.734605,0.31
5.2600517,-0.71541184,-1.7346131,0.29
5.2546005,-0.69840235,-1.7316217,0.29
5.258115,-0.68139255,-1.7326305,0.27
5.260883,-0.6733879,-1.7336345,0.2
5.2644253,-0.65737873,-1.7336427,0.09
5.25097,-0.6393688,-1.728652,0.19
5.2615166,-0.62435997,-1.7316598,0.29
5.269047,-0.60835063,-1.7336681,0.26
5.271566,-0.59134084,-1.734677,0.29
5.270097,-0.57433116,-1.7336857,0.3
5.2548914,-0.56532633,-1.7276906,0.3
5.258406,-0.5483165,-1.7286994,0.27
5.259954,-0.5323073,-1.7287078,0.29
5.25948,-0.5152976,-1.7277169,0.27
5.262026,-0.49928835,-1.7287253,0.29
5.2575617,-0.48227865,-1.7267343,0.29
5.2680874,-0.46626925,-1.7297429,0.29
5.264871,-0.4582647,-1.728747,0.29
5.256387,-0.4402545,-1.7257566,0.28
5.256937,-0.42424527,-1.7257652,0.3
5.2524695,-0.40723556,-1.7237744,0.25
5.261002,-0.3912262,-1.725783,0.32
5.261552,-0.37521696,-1.7257916,0.28
5.256085,-0.35820726,-1.7238008,0.29
5.2608514,-0.35020256,-1.7258052,0.3
5.2593765,-0.33319277,-1.7248144,0.28
5.2649174,-0.31718343,-1.7268231,0.32
5.2604465,-0.3001737,-1.7248324,0.28
5.258999,-0.28416446,-1.7238412,0.29
5.2515316,-0.2671547,-1.7218505,0.3
5.261293,-0.25914997,-1.724855,0.29
5.259816,-0.24214016,-1.7238643,0.28
5.2543726,-0.22613095,-1.7228732,0.3
5.263911,-0.2101216,-1.7258819,0.31
5.2504463,-0.19311188,-1.7208914,0.3
5.2529645,-0.17610201,-1.7219008,0.29
5.251515,-0.16009274,-1.7209097,0.31
5.2552576,-0.15108751,-1.7229148,0.29
5.262801,-0.1350782,-1.7249237,0.31
5.26435,-0.11906893,-1.7259327,0.29
5.250879,-0.10205913,-1.7209423,0.28
5.2563963,-0.085049264,-1.7229519,0.3
5.2559457,-0.069039986,-1.722961,0.29
5.25572,-0.061035354,-1.7229655,0.3
5.255241,-0.0440255,-1.722975,0.27
5.247791,-0.028016238,-1.720984,0.28
5.2493105,-0.011006378,-1.7209936,0.29
5.1346827,0.011006412,-1.7240063,0.27
5.1462226,0.027015727,-1.7280154,0.25
5.1397314,0.044025637,-1.7260251,0.18
5.126266,0.060034994,-1.7210343,0.27
5.1348076,0.07604429,-1.7240435,0.23
5.126573,0.08404899,-1.7220482,0.17
5.1221085,0.10005833,-1.7200574,0.27
5.1366553,0.11606758,-1.7260666,0.24
5.134193,0.13207692,-1.7250758,0.18
5.1267257,0.14808628,-1.7230852,0.28
5.1262636,0.1640956,-1.7230945,0.23
5.126774,0.18110548,-1.7241043,0.17
5.113558,0.18810967,-1.7191083,0.28
5.1350913,0.20511939,-1.7271183,0.23
5.1296244,0.22112873,-1.7261276,0.18
5.106161,0.23613769,-1.7181364,0.27
5.116685,0.25314745,-1.7221464,0.22
5.132218,0.2701572,-1.7281564,0.18
5.110984,0.2771615,-1.7201605,0.27
5.118534,0.2931707,-1.7241699,0.23
5.1210494,0.31018054,-1.7251799,0.17
5.1045876,0.32518944,-1.7201889,0.26
5.1241345,0.34219906,-1.7271988,0.23
5.1256495,0.35920888,-1.7282089,0.17
5.1032004,0.3732173,-1.7212172,0.27
5.107951,0.38222247,-1.7232226,0.23
5.1145053,0.39823163,-1.726232,0.18
5.105024,0.41424105,-1.7232417,0.26
5.11957,0.4312506,-1.7292517,0.23
5.11109,0.44726002,-1.7262613,0.17
5.0896335,0.4612685,-1.7202697,0.27
5.118162,0.48027894,-1.730281,0.18
5.090917,0.48628294,-1.7212846,0.25
5.098449,0.5032926,-1.7242949,0.18
5.086986,0.5183015,-1.7213038,0.13
5.0925136,0.53531116,-1.7243141,0.21
5.0840573,0.55032,-1.7223232,0.18
5.0765743,0.56632936,-1.7203329,0.28
5.08136,0.57433385,-1.7223377,0.16
5.091878,0.592344,-1.7263485,0.26
5.087434,0.6073527,-1.7263576,0.22
5.0929666,0.62436235,-1.7283679,0.21
5.069483,0.63837093,-1.7213764,0.13
5.075016,0.6553805,-1.7243867,0.2
5.066555,0.67038935,-1.7223959,0.16
5.05732,0.6773936,-1.7194002,0.26
5.073839,0.696404,-1.7264117,0.19
5.048367,0.70941216,-1.7184198,0.13
5.058923,0.7264216,-1.7224301,0.21
5.063456,0.7434311,-1.7254405,0.17
5.049971,0.75844014,-1.7214496,0.26
5.0655236,0.77644986,-1.7284607,0.21
5.0492826,0.7824538,-1.7224643,0.16
5.0438013,0.79846305,-1.7224742,0.26
5.0503464,0.8154725,-1.7254846,0.23
5.0478797,0.83148164,-1.7254944,0.17
5.044408,0.84749085,-1.7255043,0.26
5.0489464,0.8645003,-1.7285148,0.23
5.059715,0.8745056,-1.7325208,0.18
5.036231,0.88751376,-1.725529,0.28
5.0517697,0.9065239,-1.7325406,0.19
5.0333085,0.91953194,-1.7265487,0.25
5.0268497,0.93454057,-1.725558,0.16
5.0193563,0.95054984,-1.7245679,0.26
5.0328903,0.96955997,-1.7305796,0.23
5.026659,0.97656417,-1.728584,0.14
5.025199,0.99257314,-1.7295939,0.29
5.0397434,1.0115832,-1.7366055,0.21
5.0312743,1.026592,-1.7346148,0.22
4.9867945,1.0345982,-1.7196201,0.04
5.012321,1.0566094,-1.7306336,0.11
5.00885,1.0726185,-1.7306436,0.23
4.997614,1.0786222,-1.7266474,0.21
4.9931645,1.0936309,-1.7266567,0.14
4.9966793,1.1116406,-1.7296679,0.28
4.9802117,1.1246486,-1.7246761,0.22
4.9797583,1.1406574,-1.7266861,0.17
4.9702764,1.1556661,-1.7246956,0.27
4.9720345,1.1646711,-1.7257012,0.23
4.960566,1.1786793,-1.72271,0.17
4.963105,1.1956886,-1.7257205,0.27
4.9516354,1.2096968,-1.7227293,0.23
4.9551826,1.2267059,-1.72574,0.18
4.946704,1.2417146,-1.7247493,0.28
4.9464784,1.2497189,-1.7247543,0.25
4.935006,1.2637272,-1.7227633,0.18
4.9465284,1.2837375,-1.7287757,0.27
4.920059,1.2937442,-1.7207822,0.23
4.9306045,1.3127542,-1.725794,0.17
4.922124,1.3277627,-1.7248033,0.26
4.9196596,1.3437716,-1.7248135,0.23
4.9314137,1.3557774,-1.7308209,0.2
4.9109535,1.3667845,-1.7248279,0.13
4.9034786,1.3817929,-1.7238375,0.21
4.923019,1.4038037,-1.732851,0.17
4.91255,1.4178119,-1.7308599,0.28
4.905076,1.4328202,-1.7298694,0.23
4.894605,1.4468282,-1.7278782,0.17
4.892366,1.4548327,-1.7278832,0.27
4.8948894,1.4728422,-1.7308946,0.23
4.8844447,1.4858496,-1.7289028,0.17
4.874953,1.5008582,-1.7269123,0.26
4.8884873,1.5218686,-1.7339253,0.22
4.872019,1.5338758,-1.729933,0.17
4.856557,1.545883,-1.7259407,0.28
4.866311,1.5578889,-1.7309482,0.2
4.8638506,1.5738974,-1.7319582,0.25
4.8463693,1.5859048,-1.7269659,0.16
4.8409095,1.6009129,-1.7269753,0.27
4.8494377,1.6209229,-1.7329879,0.23
4.8489695,1.6379318,-1.7349985,0.18
4.8317323,1.6409343,-1.7290006,0.27
4.833255,1.6589437,-1.7320118,0.18
4.8187947,1.6709508,-1.7290195,0.24
4.827329,1.6909608,-1.734032,0.16
4.807848,1.7019675,-1.7290391,0.24
4.8353753,1.7289798,-1.7420558,0.19
4.804924,1.7349848,-1.7320597,0.12
4.8106813,1.74599,-1.7350667,0.19
4.7812076,1.7529954,-1.7270713,0.0
4.677736,1.7329915,-1.6890597,0.0
4.5892577,1.7179892,-1.6580511,0.0
4.4233103,1.6899854,-1.5990354,0.24
4.4330683,1.7019911,-1.6040428,0.0
4.407618,1.7079959,-1.5960468,0.0
4.309139,1.6869916,-1.5610344,0.0
4.246665,1.6789918,-1.5390301,0.0
4.218186,1.6839964,-1.5300336,0.0
4.1807156,1.6849997,-1.5180345,0.0
4.1752586,1.698007,-1.5180427,0.0
4.179003,1.708012,-1.5210489,0.0
4.138545,1.7070144,-1.5070488,0.0
4.08409,1.7000148,-1.4880449,0.0
4.0326,1.695016,-1.4710423,0.0
3.995123,1.6950189,-1.4590425,0.0
3.9656816,1.6970223,-1.4490441,0.0
3.9384193,1.6940228,-1.4400425,0.0
3.884964,1.6860229,-1.421038,0.0
3.8365016,1.6800238,-1.4040347,0.0
3.7579992,1.6620207,-1.3760242,0.0
3.7275383,1.6630236,-1.3670253,0.0
3.6960566,1.664027,-1.357026,0.0
3.6646023,1.6640297,-1.3460264,0.0
3.6393652,1.6600298,-1.3380241,0.0
3.6028922,1.658032,-1.3250232,0.0
3.560421,1.653033,-1.3110204,0.0
3.5329335,1.6550367,-1.303022,0.0
3.5034783,1.6550394,-1.2930223,0.0
3.4890137,1.6620445,-1.2900268,0.0
3.443532,1.655045,-1.2740228,0.0
3.4242918,1.6530458,-1.2670218,0.0
3.389836,1.6500475,-1.2560201,0.0
3.3493419,1.6450487,-1.2420174,0.0
3.3338735,1.6510534,-1.2380213,0.0
3.307391,1.6520567,-1.2300221,0.0
3.2899163,1.6570611,-1.2260253,0.0
3.2474642,1.6490611,-1.2110207,0.0
3.2192178,1.6420602,-1.2010165,0.0
3.206746,1.6490653,-1.198021,0.0
3.1822722,1.6500685,-1.1900218,0.0
3.1468086,1.6450695,-1.178019,0.0
3.0728729,1.633071,-1.153012,0.0
3.0406296,1.623069,-1.1410061,0.0
3.0411587,1.636076,-1.1440141,0.0
2.200755,1.5961659,-0.88399124,0.0
2.1672776,1.5841647,-0.87198395,0.0
2.150339,1.594173,-0.86898965,0.0
2.1281393,1.5831707,-0.8599831,0.0
2.145683,1.6061801,-0.8699967,0.0
2.1011798,1.5861766,-0.85298455,0.0
2.091712,1.5901803,-0.85098684,0.0
2.0802667,1.5921831,-0.8489879,0.0
2.066754,1.5941867,-0.8449889,0.0
2.077532,1.6071916,-0.8509967,0.0
2.062086,1.6061937,-0.8469959,0.0
2.039583,1.6011949,-0.8389927,0.0
2.035136,1.6081991,-0.8399967,0.0
2.0146444,1.6042006,-0.8329941,0.0
2.001159,1.6052033,-0.8299945,0.0
1.9917169,1.6082064,-0.82799613,0.0
1.9784958,1.6032062,-0.82299304,0.0
1.9770108,1.6132115,-0.82499874,0.0
1.9555515,1.6072121,-0.81799495,0.0
1.9450654,1.6102154,-0.8159965,0.0
1.9356126,1.6132187,-0.8139981,0.0
1.9101298,1.6042185,-0.80499244,0.0
1.9126483,1.6172248,-0.8079999,0.0
1.8913896,1.6062229,-0.7999933,0.0
1.896972,1.620229,-0.8050014,0.0
1.8944936,1.6292341,-0.80600643,0.0
1.8750256,1.6242349,-0.8000032,0.0
1.8655589,1.6272382,-0.7980046,0.0
1.8510852,1.6262401,-0.7940037,0.0
1.8528433,1.6332433,-0.79600775,0.0
1.8413877,1.634246,-0.793008,0.0
1.8229362,1.6292468,-0.78700477,0.0
1.8144513,1.6332502,-0.78600687,0.0
1.8239756,1.652258,-0.79301775,0.0
1.7985163,1.641257,-0.7840109,0.0
1.8170338,1.6682671,-0.79502654,0.0
1.7968034,1.6562648,-0.78701925,0.0
1.7843398,1.6562669,-0.7840189,0.0
1.7728671,1.6572696,-0.78101903,0.0
1.7873812,1.6812785,-0.7910329,0.0
1.7769039,1.6832814,-0.78903365,0.0
1.781482,1.6972873,-0.7930416,0.0
1.7800052,1.7072923,-0.7950471,0.0
1.780739,1.7142955,-0.79705095,0.0
1.7802614,1.7253007,-0.800057,0.0
1.7878404,1.7423074,-0.80606663,0.05
1.783385,1.7493113,-0.80707026,0.15
1.7714438,1.7613188,-0.8070764,0.32
1.7749659,1.7763251,-0.8110847,0.2
1.7567228,1.7653232,-0.804078,0.17
1.7632811,1.7823297,-0.8100875,0.39
1.7617803,1.7933348,-0.81309336,0.28
1.7383292,1.7823339,-0.8040864,0.23
1.7558751,1.8103434,-0.8161023,0.16
1.7414024,1.808345,-0.8111006,0.16
1.7231392,1.7973431,-0.8040938,0.0
1.7396598,1.8253525,-0.81610966,0.0
1.7052014,1.8033488,-0.8010962,0.0
1.7007477,1.8103524,-0.8020997,0.0
1.7042907,1.8253584,-0.8071079,0.0
1.6788044,1.812357,-0.79709965,0.0
1.67835,1.8233618,-0.8001055,0.0
1.6741029,1.8253634,-0.7991063,0.03
1.6636474,1.8263656,-0.7971063,0.03
1.6651571,1.8403711,-0.8011138,0.14
1.6547004,1.8413733,-0.7991137,0.12
1.6682291,1.867382,-0.8091282,0.16
1.65477,1.8653833,-0.80512637,0.0
1.6305315,1.8463793,-0.79511493,0.0
1.6120527,1.8393794,-0.7891101,0.0
1.6045908,1.8433822,-0.7881118,0.0
1.6001352,1.8503858,-0.78911513,0.0
1.5846517,1.8463868,-0.7841121,0.0
1.5831633,1.8573914,-0.7871177,0.0
1.5767021,1.8623945,-0.78711987,0.0
1.5824811,1.8743985,-0.79112643,0.0
1.574015,1.8774011,-0.7901274,0.0
1.5815293,1.8984082,-0.7971387,0.0
1.5630641,1.8904079,-0.79113334,0.0
1.5795858,1.9214174,-0.80315036,0.0
1.5471319,1.8974133,-0.7891357,0.0
1.557636,1.9224211,-0.7991492,0.0
1.5724382,1.9444273,-0.8081615,0.0
1.5559744,1.9384274,-0.8031572,0.0
1.559498,1.9554334,-0.8081661,0.0
1.5390444,1.9444321,-0.80115896,0.0
1.5655551,1.9884447,-0.81918323,0.0
1.5440933,1.9764433,-0.8111754,0.0
1.5416312,1.9864473,-0.8131802,0.0
1.557398,2.011454,-0.8241941,0.0
1.5419315,2.0064547,-0.8191902,0.0
1.5464507,2.0254607,-0.8252001,0.0
1.5439626,2.036465,-0.8282053,0.0
1.5385281,2.0424676,-0.8282078,0.0
1.5280561,2.0434694,-0.8262073,0.0
1.5375582,2.069477,-0.836221,0.0
1.5283456,2.0644767,-0.83221763,0.0
1.5338962,2.0844827,-0.839228,0.0
1.5283967,2.0924861,-0.84123135,0.0
1.5239427,2.1004891,-0.84223485,0.0
1.5204638,2.110493,-0.84423935,0.0
1.5249892,2.130499,-0.8512495,0.0
1.5215507,2.1395023,-0.8532535,0.0
1.5152909,2.139503,-0.85125285,0.0
1.5188522,2.1575084,-0.8572619,0.0
1.5093608,2.1605103,-0.8562623,0.0
1.5188887,2.187518,-0.86627626,0.0
1.5134407,2.1945205,-0.867279,0.0
1.5049629,2.1985228,-0.86627996,0.0
1.5127493,2.215527,-0.8732889,0.0
1.5192366,2.2405338,-0.8823015,0.0
1.5148078,2.2485366,-0.88330483,0.0
1.502325,2.2475376,-0.88030285,0.0
1.5028567,2.2635424,-0.8853105,0.0
1.5053838,2.2825475,-0.89131963,0.0
1.5049131,2.2975516,-0.8963266,0.0
1.4976764,2.2955518,-0.8943248,0.0
1.5111887,2.3305604,-0.9073428,0.0
1.5007643,2.3305614,-0.90534145,0.0
1.501258,2.348566,-0.91034985,0.0
1.5017862,2.3655708,-0.91635776,0.0
1.4882957,2.3635714,-0.91235507,0.0
1.4918678,2.3835764,-0.9193647,0.0
1.4836476,2.379576,-0.9163618,0.0
1.4941682,2.4115834,-0.9283778,0.0
1.4906628,2.4245872,-0.93138325,0.0
1.4932103,2.444592,-0.9383927,0.0
