X,Y,Z,Intensity
-1.5616883,4.762173,-1.5152113,0.4
-1.5761968,4.7531853,-1.5132341,0.38
-1.5854234,4.758193,-1.5152473,0.4
-1.5979284,4.743204,-1.5112678,0.4
-1.6124285,4.7352166,-1.5102906,0.39
-1.6308861,4.744232,-1.5153173,0.4
-1.6473787,4.7432466,-1.5163424,0.39
-1.6608888,4.7312584,-1.5133643,0.41
-1.6813718,4.743275,-1.5193938,0.35
-1.6898729,4.7172837,-1.5114101,0.46
-1.7021034,4.7302938,-1.5164272,0.31
-1.7195921,4.7323084,-1.5194535,0.48
-1.7360606,4.7333226,-1.5214787,0.32
-1.744569,4.707331,-1.5134952,0.46
-1.7650639,4.7173486,-1.5185254,0.36
-1.778536,4.70936,-1.5175472,0.41
-1.7877944,4.7103686,-1.5185615,0.29
-1.8052788,4.7123837,-1.5215883,0.48
-1.8197808,4.7043967,-1.5206119,0.29
-1.8312818,4.6884074,-1.5166322,0.47
-1.8537505,4.705426,-1.5236647,0.32
-1.8662598,4.691438,-1.5206864,0.46
-1.8777412,4.6774487,-1.5177064,0.36
-1.8919775,4.6934605,-1.5237265,0.38
-1.9054619,4.684473,-1.522749,0.38
-1.9169686,4.6684837,-1.5187696,0.41
-1.9344468,4.6704993,-1.521797,0.38
-1.9479457,4.660512,-1.5198199,0.41
-1.9644405,4.658527,-1.5208465,0.36
-1.9819158,4.660542,-1.523874,0.38
-1.9881865,4.6525483,-1.5218853,0.38
-2.0036745,4.648562,-1.5219108,0.38
-2.0221527,4.652579,-1.5259397,0.38
-2.0366461,4.645592,-1.5249641,0.37
-2.051127,4.6396055,-1.5249884,0.4
-2.0666254,4.6346197,-1.5250143,0.39
-2.0841079,4.6356354,-1.5270425,0.39
-2.089351,4.6276407,-1.5260522,0.38
-2.107836,4.6306567,-1.5290818,0.38
-2.1203346,4.6186695,-1.5261042,0.38
-2.1408365,4.6246877,-1.5311366,0.38
-2.1563203,4.620702,-1.5311626,0.39
-2.1668136,4.604713,-1.5271827,0.39
-2.1842892,4.6057286,-1.5302111,0.41
-2.1945505,4.6077375,-1.5322278,0.39
-2.2080276,4.599751,-1.5312514,0.41
-2.223536,4.5937653,-1.5312781,0.39
-2.2410083,4.5947814,-1.5343069,0.38
-2.2555015,4.5877953,-1.5333322,0.37
-2.2729988,4.5868115,-1.5353614,0.42
-2.2874904,4.5798254,-1.5353869,0.34
-2.2937157,4.5758314,-1.5343982,0.41
-2.30722,4.565845,-1.5334226,0.38
-2.3257027,4.567862,-1.5364532,0.4
-2.3372202,4.552874,-1.5334755,0.4
-2.3547144,4.55189,-1.5355052,0.4
-2.3721924,4.551906,-1.5385346,0.36
-2.3774455,4.543912,-1.5365452,0.4
-2.3939378,4.540928,-1.5375737,0.35
-2.4064157,4.53094,-1.5365969,0.41
-2.4189236,4.518953,-1.5346206,0.38
-2.4373991,4.5209703,-1.5376517,0.39
-2.4559023,4.520988,-1.5396832,0.38
-2.4643862,4.5029974,-1.5357015,0.38
-2.4746501,4.5040073,-1.537719,0.34
-2.4911096,4.5030227,-1.5397474,0.4
-2.5066144,4.497038,-1.5397754,0.39
-2.5211205,4.489053,-1.5398021,0.35
-2.5445914,4.5000744,-1.5468402,0.42
-2.5510857,4.478082,-1.5408562,0.36
-2.569581,4.4781,-1.5438883,0.43
-2.5870483,4.4781165,-1.5459187,0.36
-2.5943315,4.472124,-1.5449327,0.38
-2.6098177,4.4671397,-1.5459609,0.4
-2.6272957,4.4661565,-1.5489916,0.41
-2.6388118,4.452169,-1.546015,0.4
-2.6562736,4.4521856,-1.5490456,0.42
-2.6767538,4.4562054,-1.5530806,0.36
-2.6750114,4.436206,-1.5470822,0.49
-2.6974976,4.443227,-1.5521201,0.32
-2.7109888,4.434241,-1.5521461,0.43
-2.723487,4.423254,-1.5501709,0.34
-2.7369792,4.414268,-1.550197,0.42
-2.757483,4.416288,-1.5542328,0.29
-2.769982,4.4053016,-1.5522578,0.61
-2.8700318,4.5673804,-1.6153954,0.0
-1.9751648,2.9556925,-1.0042051,0.01
-2.03258,2.989746,-1.0232996,0.6
-1.9402461,2.8086777,-0.9551809,0.0
-5.4058194,1.9388171,-1.6578989,0.0
-6.0846853,1.4507847,-1.8187758,0.21
-6.0472207,1.4227537,-1.8047146,0.3
-6.055735,1.4057703,-1.8057469,0.33
-6.0460052,1.3937643,-1.8017348,0.35
-6.0635166,1.3787903,-1.8057855,0.34
-6.072002,1.3628064,-1.8068172,0.35
-6.056545,1.3397985,-1.799801,0.4
-6.067041,1.3238169,-1.8018371,0.33
-6.084546,1.3088431,-1.806888,0.39
-6.0737906,1.2978354,-1.8018728,0.36
-6.074314,1.278844,-1.8008891,0.33
-6.084809,1.2628624,-1.8029252,0.35
-6.0903325,1.2448763,-1.8029519,0.38
-6.0988417,1.2278931,-1.8049847,0.33
-6.105343,1.2109075,-1.8050128,0.36
-6.095846,1.1909051,-1.8010076,0.36
-6.0941133,1.1809074,-1.8000119,0.34
-6.120599,1.1679428,-1.8070813,0.38
-6.1161294,1.1479461,-1.8040875,0.34
-6.1086473,1.127946,-1.800087,0.31
-6.12614,1.1129723,-1.8051381,0.4
-6.1206684,1.0929745,-1.8021421,0.34
-6.128172,1.0759902,-1.8031726,0.32
-6.1244335,1.0659901,-1.8011724,0.38
-6.1259394,1.0479994,-1.8001903,0.39
-6.141447,1.0320239,-1.804238,0.25
-6.1659336,1.0180575,-1.8113039,0.19
-6.150452,0.997049,-1.8052866,0.26
-6.1559744,0.9790628,-1.8053136,0.32
-6.1724515,0.9640879,-1.8103626,0.31
-6.1477203,0.9510655,-1.8013182,0.32
-6.1552496,0.9330816,-1.8023497,0.34
-6.1737328,0.91810894,-1.8074031,0.38
-6.1582623,0.89710045,-1.8013859,0.31
-6.161776,0.8791121,-1.8014085,0.41
-6.1702785,0.86212903,-1.8034414,0.31
-6.1697783,0.8441363,-1.8024553,0.36
-6.1690555,0.8341397,-1.8014618,0.35
-6.1805677,0.81715995,-1.8035015,0.32
-6.1680884,0.7971544,-1.7984903,0.33
-6.1695957,0.779164,-1.7985085,0.35
-6.1791,0.76218206,-1.8005437,0.32
-6.1745906,0.7441848,-1.7985486,0.36
-6.172117,0.72519016,-1.7965589,0.34
-6.1863523,0.7182092,-1.8005964,0.35
-6.168897,0.6971986,-1.7935749,0.32
-6.1714096,0.67920923,-1.7935956,0.39
-6.19291,0.6632405,-1.8006568,0.32
-6.174429,0.64322835,-1.7936323,0.39
-6.1879096,0.6272506,-1.7976757,0.36
-6.1911716,0.6182581,-1.7976905,0.36
-6.182689,0.59925675,-1.7936873,0.33
-6.1712294,0.5792526,-1.7896787,0.34
-6.1947274,0.5632861,-1.7967443,0.33
-6.1802373,0.544278,-1.790728,0.36
-6.1897335,0.5272962,-1.7937634,0.34
-6.195252,0.5093103,-1.7947907,0.36
-6.194506,0.50031334,-1.7937967,0.36
-6.1850266,0.48131108,-1.7907915,0.32
-6.1965256,0.46433148,-1.7938313,0.37
-6.1990385,0.44634217,-1.7938521,0.31
-6.1925683,0.4273432,-1.7908536,0.34
-6.1980577,0.41035682,-1.7918802,0.38
-6.1865826,0.3913523,-1.7878708,0.32
-6.1898413,0.38235995,-1.7888855,0.33
-6.201336,0.36538032,-1.7919255,0.35
-6.196871,0.3463837,-1.7899317,0.31
-6.187375,0.32838088,-1.7859256,0.34
-6.1998672,0.31140247,-1.7899679,0.4
-6.1883993,0.292398,-1.7859583,0.34
-6.1879125,0.27440536,-1.7849725,0.35
-6.203148,0.26642603,-1.7900132,0.31
-6.194684,0.24742495,-1.7870104,0.39
-6.1981993,0.22943677,-1.7870336,0.36
-6.2046847,0.21245159,-1.7890624,0.33
-6.2001967,0.1944545,-1.7870677,0.38
-6.2057085,0.17646873,-1.7890952,0.36
-6.210222,0.15848175,-1.7901205,0.32
-6.197478,0.14947149,-1.7860997,0.37
-6.2079897,0.13149124,-1.7891384,0.36
-6.2185006,0.113510974,-1.7921771,0.28
-6.2230115,0.09552398,-1.7932025,0.49
-6.200531,0.07750687,-1.7861677,0.29
-6.2050433,0.059519883,-1.7871931,0.17
-6.224546,0.041549694,-1.7932519,0.26
-6.2218037,0.03255062,-1.7922534,0.38
-6.224315,0.0145613495,-1.7922742,0.36
-5.235792,-0.020556781,-1.7627276,0.31
-5.2342653,-0.038546044,-1.7627442,0.42
-5.232737,-0.056535188,-1.7617608,0.31
-5.2272086,-0.07451988,-1.7597864,0.33
-5.2274456,-0.0835156,-1.7597924,0.33
-5.316999,-0.1036059,-1.7896076,0.35
-5.3114643,-0.12159063,-1.7876332,0.34
-5.3169327,-0.13958773,-1.7896342,0.34
-5.3093977,-0.15757018,-1.7866641,0.35
-5.3078647,-0.17555934,-1.7856808,0.37
-5.3073587,-0.19454925,-1.7856958,0.37
-5.311593,-0.20354953,-1.787693,0.36
-5.3130593,-0.22154209,-1.7877029,0.36
-5.3125267,-0.23953247,-1.7877173,0.37
-5.316021,-0.25852695,-1.7897234,0.36
-5.302468,-0.2755031,-1.7847661,0.36
-5.3169537,-0.29450992,-1.7897477,0.37
-5.3111906,-0.30349886,-1.7877672,0.35
-5.314657,-0.32149383,-1.7897726,0.32
-5.3051305,-0.339474,-1.785807,0.34
-5.31162,-0.35847184,-1.7888064,0.36
-5.298076,-0.37544814,-1.7848493,0.36
-5.302564,-0.3944436,-1.7858531,0.38
-5.3040314,-0.4124363,-1.7868631,0.34
-5.3032665,-0.42143092,-1.7868713,0.31
-5.3007374,-0.43941903,-1.7858901,0.35
-5.307224,-0.45841694,-1.7888896,0.37
-5.30869,-0.47640964,-1.7898996,0.36
-5.3071604,-0.49439898,-1.7899162,0.32
-5.309649,-0.5133923,-1.7909244,0.32
-5.314135,-0.532388,-1.7929283,0.41
-5.3023624,-0.54037064,-1.7889605,0.32
-5.30283,-0.5583623,-1.7899727,0.34
-5.3022985,-0.5763527,-1.7899871,0.33
-5.30778,-0.5953495,-1.7919886,0.41
-5.305253,-0.61333776,-1.7920074,0.31
-5.2997303,-0.6313225,-1.790033,0.33
-5.298966,-0.64031714,-1.7900412,0.36
-5.2934465,-0.65830195,-1.7890667,0.36
-5.299925,-0.67730004,-1.7920661,0.35
-5.2963734,-0.69428754,-1.7910864,0.33
-5.2958684,-0.71327764,-1.7921015,0.33
-5.300347,-0.7322732,-1.7931052,0.35
-5.2928095,-0.74925643,-1.7921345,0.34
-5.3050594,-0.7602648,-1.796115,0.33
-5.2955256,-0.77724564,-1.7931489,0.36
-5.2920027,-0.79523283,-1.7931699,0.35
-5.298475,-0.81423086,-1.796169,0.3
-5.3009567,-0.8332243,-1.7971773,0.38
-5.2984295,-0.8512126,-1.797196,0.31
-5.30592,-0.87121135,-1.8001938,0.38
-5.310396,-0.8902073,-1.8031975,0.35
-5.307636,-0.89919966,-1.8022102,0.34
-5.315098,-0.91819894,-1.8052073,0.33
-5.304573,-0.9351787,-1.8032432,0.29
-5.2950435,-0.9521595,-1.8002769,0.34
-5.311548,-0.9741677,-1.8072556,0.34
-5.300998,-0.9901478,-1.8042909,0.37
-5.3012547,-1.0001433,-1.8052975,0.35
-5.3087373,-1.0201421,-1.8082951,0.36
-5.3072047,-1.0381317,-1.8093115,0.33
-5.3046756,-1.0561202,-1.8093301,0.38
-5.3171597,-1.0771244,-1.8143171,0.36
-5.3026295,-1.0931,-1.8103614,0.36
-5.311103,-1.1131,-1.8143566,0.32
-5.311355,-1.1230955,-1.8143631,0.37
-5.3118362,-1.1420869,-1.8153757,0.33
-5.2993007,-1.1580648,-1.8124154,0.36
-5.31479,-1.1800722,-1.8193961,0.35
-5.3062606,-1.1970543,-1.8174275,0.38
-5.3027344,-1.2150416,-1.8174483,0.36
-5.315974,-1.227051,-1.822427,0.32
-5.3084655,-1.2450339,-1.8204567,0.34
-5.3019285,-1.2620182,-1.8194835,0.36
-5.3134007,-1.2830215,-1.8244727,0.35
-5.299875,-1.2989984,-1.8215145,0.37
-5.298363,-1.3179876,-1.8225313,0.41
-5.3018484,-1.3379822,-1.8245376,0.35
-5.2930727,-1.3449688,-1.8225623,0.36
-5.3055577,-1.3669727,-1.8275497,0.36
-5.308046,-1.3869661,-1.8295583,0.33
-5.294499,-1.4019437,-1.8265994,0.34
-5.291991,-1.4209318,-1.8276184,0.35
-5.301462,-1.4419328,-1.8316118,0.36
-5.2839413,-1.4569057,-1.8276618,0.34
-5.2951746,-1.468913,-1.8316449,0.35
-5.296665,-1.4889053,-1.8336555,0.36
-5.283122,-1.5038829,-1.8306965,0.34
-5.2825994,-1.5228734,-1.8317109,0.37
-5.297082,-1.5458792,-1.8376943,0.37
-5.279566,-1.5608523,-1.8337443,0.36
-5.2710443,-1.5778347,-1.8327752,0.39
-5.1632147,-1.5567201,-1.7960039,0.0
-5.1216707,-1.5636691,-1.7841027,0.05
-5.068136,-1.5676054,-1.7672262,0.09
-5.029584,-1.5745578,-1.7553182,0.09
-4.96504,-1.5744832,-1.7344639,0.08
-4.923498,-1.5804323,-1.7215619,0.04
-4.9049516,-1.5924053,-1.7166122,0.04
-4.8801904,-1.5943758,-1.7096696,0.07
-4.877661,-1.6113651,-1.7106872,0.04
-4.8731456,-1.6283519,-1.7107092,0.0
-4.8706136,-1.645341,-1.7107267,0.0
-4.8730974,-1.6643351,-1.7137341,0.0
-4.875578,-1.6833292,-1.7157418,0.0
-4.844041,-1.6912891,-1.7068185,0.0
-3.0330324,-1.5352399,-1.1258267,0.0
-2.1359835,-2.5947232,-1.068476,0.0
-2.1404884,-2.6157217,-1.0744752,0.0
-3.1977859,-4.2924743,-1.7178257,0.45
-3.1772747,-4.294451,-1.713869,0.36
-3.1775231,-4.3084483,-1.7178729,0.39
-3.1620288,-4.31743,-1.7169079,0.41
-3.1554966,-4.335418,-1.719927,0.41
-3.1310055,-4.333392,-1.7139772,0.41
-3.1384804,-4.3693924,-1.7249726,0.44
-3.1299694,-4.3863797,-1.7269952,0.43
-3.111472,-4.391359,-1.7250351,0.34
-3.1126904,-4.405357,-1.7290366,0.55
-3.121197,-4.445358,-1.7410308,0.32
-3.105664,-4.4523396,-1.7390648,0.46
-3.0951743,-4.468325,-1.741091,0.43
-3.0816658,-4.479308,-1.7411219,0.42
-3.0641618,-4.485288,-1.7391596,0.38
-3.0056338,-4.4352355,-1.7142657,0.56
-3.0158815,-4.4632406,-1.7242525,0.29
-2.9953675,-4.464218,-1.7202948,0.48
-2.9708626,-4.4601927,-1.7143439,0.4
-2.9873486,-4.5112004,-1.7313242,0.34
-2.9538317,-4.4941673,-1.7193879,0.39
-2.9663322,-4.541172,-1.7343751,0.36
-2.941814,-4.5361466,-1.7284236,0.53
-2.938067,-4.5461407,-1.7304338,0.3
-2.9255555,-4.558125,-1.7314625,0.51
-2.8970513,-4.5480967,-1.7225177,0.37
-2.8705401,-4.5400696,-1.7155695,0.41
-2.8810177,-4.5840726,-1.7295593,0.35
-2.8685212,-4.5970573,-1.730588,0.51
-2.853753,-4.5900426,-1.725616,0.38
-2.8112528,-4.5590034,-1.7096941,0.52
-2.808735,-4.5849957,-1.7157056,0.33
-2.7912314,-4.5899763,-1.7137421,0.49
-2.7747226,-4.595958,-1.7127768,0.32
-2.758213,-4.6019397,-1.7108114,0.52
-2.7366972,-4.5999174,-1.705854,0.32
-2.7129502,-4.579896,-1.695897,0.44
-2.7044303,-4.596884,-1.699918,0.39
-2.6789231,-4.588858,-1.6929672,0.36
-2.6734068,-4.6108484,-1.6979833,0.48
-2.6769023,-4.647846,-1.7079846,0.32
-2.6453903,-4.629816,-1.6980433,0.52
-2.6128907,-4.610785,-1.6861038,0.38
-2.5841484,-4.58176,-1.6731546,0.28
-2.5756276,-4.5987477,-1.6761752,0.55
-2.554103,-4.5947266,-1.6712171,0.36
-2.521608,-4.5746956,-1.6602771,0.39
-2.5320902,-4.622699,-1.6752665,0.41
-2.5325844,-4.655694,-1.6842725,0.43
-2.521086,-4.6696796,-1.686298,0.32
-2.4913328,-4.636654,-1.6723498,0.59
-2.465826,-4.6266294,-1.664398,0.23
-2.4522927,-4.634614,-1.6644262,0.55
-2.4107945,-4.5975766,-1.6475003,0.3
-2.4162893,-4.639576,-1.6594977,0.47
-2.3987849,-4.642557,-1.6575326,0.29
-2.3690279,-4.607532,-1.6425841,0.59
-2.3555148,-4.6165166,-1.6426121,0.28
-2.34401,-4.629503,-1.644637,0.47
-2.326498,-4.6314845,-1.6426715,0.4
-2.3019924,-4.621461,-1.6357174,0.43
-2.2854724,-4.624443,-1.63375,0.36
-2.2559881,-4.6064157,-1.6238039,0.46
-2.2522213,-4.615411,-1.6258128,0.37
-2.2367222,-4.621394,-1.6248438,0.45
-2.2132046,-4.611371,-1.6178875,0.36
-2.1956906,-4.6123533,-1.6159215,0.48
-2.1902006,-4.637344,-1.6219362,0.25
-2.1576884,-4.610315,-1.6089942,0.48
-2.143184,-4.617299,-1.6090232,0.42
-2.1504312,-4.648302,-1.6190144,0.37
-2.1319041,-4.6462836,-1.6150496,0.42
-2.11541,-4.650266,-1.6140817,0.43
-2.1108987,-4.6762586,-1.6210946,0.4
-2.082382,-4.6552324,-1.6101456,0.46
-2.065876,-4.6582155,-1.6081774,0.39
-2.0623736,-4.687208,-1.6161885,0.44
-2.0506275,-4.6821966,-1.61321,0.37
-2.0631182,-4.7432017,-1.6331954,0.43
-2.0566175,-4.7671924,-1.6392112,0.37
-2.0260875,-4.740165,-1.6262648,0.48
-2.016588,-4.7581534,-1.6302853,0.38
-2.0470855,-4.859172,-1.665242,0.46
-2.0365736,-4.8751597,-1.6682638,0.34
-2.0328395,-4.8881545,-1.6712725,0.45
-1.9813119,-4.816112,-1.6423593,0.41
-2.0178103,-4.9331346,-1.6823065,0.35
-2.0153122,-4.968128,-1.6923156,0.45
-1.995797,-4.9651093,-1.6893514,0.38
-1.9762826,-4.9620905,-1.6853873,0.4
-1.9735504,-4.978086,-1.6893941,0.39
-1.9450264,-4.954061,-1.6784439,0.44
-1.9215412,-4.944039,-1.6724861,0.41
-1.9200153,-4.980034,-1.6824931,0.4
-1.8935077,-4.96101,-1.6735395,0.38
-1.8429936,-4.885968,-1.6436238,0.46
-1.877498,-5.00799,-1.6855742,0.41
-1.8407372,-4.9429603,-1.6606342,0.38
-1.7932477,-4.874921,-1.6337137,0.35
-1.7717448,-4.865901,-1.628752,0.38
-1.7052255,-4.7478476,-1.5838609,0.6
-1.7177175,-4.818853,-1.6068454,0.32
-1.620223,-4.6247773,-1.5360029,0.49
-1.6047224,-4.627762,-1.5340314,0.36
-1.5959603,-4.6257534,-1.5320472,0.48
-1.5744617,-4.613734,-1.5260849,0.29
-1.555949,-4.6077166,-1.5221179,0.55
-1.5304469,-4.5846934,-1.5121617,0.3
-1.5399463,-4.6506968,-1.5331507,0.53
-1.6234348,-4.9077544,-1.6220239,0.32
-1.633905,-4.9777584,-1.6450112,0.45
-1.5371871,-4.7506857,-1.5631646,0.4
-1.4876573,-4.661646,-1.5302455,0.26
-1.4521543,-4.6106157,-1.5103047,0.48
-1.4616629,-4.6806192,-1.5322936,0.31
-1.445144,-4.6786036,-1.5303228,0.49
-1.4166576,-4.6465793,-1.5173708,0.38
-1.4039043,-4.6335683,-1.5113924,0.49
-1.4053922,-4.6815658,-1.5263934,0.28
-1.3888777,-4.67955,-1.5244224,0.61
-1.4283739,-4.8375754,-1.5773641,0.2
-1.4878441,-5.053615,-1.6512744,0.52
-1.4653488,-5.0395956,-1.6443129,0.38
-1.4358641,-5.00557,-1.6313621,0.38
-1.4210938,-4.9855576,-1.6223866,0.46
-1.408595,-4.9995456,-1.625409,0.29
-1.3840859,-4.976524,-1.6154501,0.51
-1.370579,-4.986511,-1.6174741,0.34
-1.349086,-4.973492,-1.6115104,0.45
-1.3315735,-4.970476,-1.6085404,0.35
-1.3240778,-5.0004673,-1.6175549,0.39
-1.3103051,-4.981456,-1.6095775,0.4
-1.2948287,-4.9884415,-1.6106043,0.47
-1.2853206,-5.0114307,-1.6166216,0.36
-1.2698056,-5.0144167,-1.6156482,0.43
-1.2573018,-5.0284047,-1.61967,0.4
-1.2477862,-5.0513945,-1.6256871,0.4
-1.2372795,-5.0723844,-1.6317058,0.36
-1.185528,-4.925345,-1.5797874,0.45
-1.1610245,-4.8973246,-1.5688277,0.29
-1.1385436,-4.878305,-1.5598648,0.5
-1.1660118,-5.028322,-1.610824,0.28
-1.111515,-4.89428,-1.5629108,0.51
-1.0950142,-4.893265,-1.5609385,0.36
-1.0832571,-4.8792553,-1.5549576,0.58
-1.0857704,-4.949254,-1.5779555,0.24
-1.0422618,-4.84722,-1.542025,0.56
-1.0277646,-4.8532066,-1.5420493,0.31
-1.0122508,-4.853193,-1.541075,0.45
-1.0107371,-4.9071894,-1.5580788,0.37
-0.99924487,-4.926178,-1.5630982,0.45
-0.9984887,-4.9541764,-1.5721,0.4
-0.98097444,-4.947161,-1.5681286,0.5
-0.96446985,-4.9451466,-1.5661556,0.36
-0.95397687,-4.969136,-1.573173,0.39
-0.93948376,-4.9771233,-1.5741968,0.44
-0.923949,-4.9751096,-1.5722221,0.42
-0.9064545,-4.9700947,-1.5692503,0.55
-0.89772636,-4.970087,-1.5692644,0.36
-0.8831994,-4.9730744,-1.5692879,0.61
-0.8776994,-5.020068,-1.5832971,0.31
-0.964174,-5.479128,-1.7381616,0.46
-0.9466688,-5.479113,-1.7371893,0.42
-0.9261694,-5.466096,-1.7312217,0.43
-0.91065735,-5.4740825,-1.7322463,0.36
-0.902907,-5.479076,-1.7332584,0.53
-0.8814229,-5.463058,-1.7262923,0.38
-0.8649008,-5.464044,-1.7263182,0.4
-0.850411,-5.4810314,-1.7303408,0.36
-0.83789206,-5.5030203,-1.7373602,0.45
-0.8203885,-5.5030055,-1.7353874,0.36
-0.8038969,-5.509992,-1.737413,0.56
-0.7981513,-5.526987,-1.7424217,0.32
-0.7826486,-5.5379734,-1.7444456,0.44
-0.76812273,-5.5499616,-1.7474678,0.35
-0.75163573,-5.558948,-1.749493,0.52
-0.7241261,-5.5009265,-1.7285359,0.34
-0.7116382,-5.5319157,-1.7385546,0.44
-0.702883,-5.530908,-1.7375679,0.43
-0.6893736,-5.552897,-1.7435881,0.36
-0.67186385,-5.5508823,-1.7426147,0.55
-0.65636116,-5.56287,-1.7456379,0.33
-0.6478594,-5.6198626,-1.7636496,0.51
-0.6383626,-5.673854,-1.7806625,0.31
-0.6218501,-5.6798406,-1.7816873,0.45
-0.61009175,-5.6588316,-1.7747052,0.45
-0.59757906,-5.691821,-1.784723,0.32
-0.57708734,-5.6758046,-1.777754,0.45
-0.5605905,-5.685792,-1.780778,0.41
-0.5470876,-5.716781,-1.7897972,0.37
-0.5285864,-5.7117662,-1.7878245,0.5
-0.5080801,-5.6897507,-1.7798553,0.37
-0.501328,-5.7057447,-1.7848647,0.55
-0.4868222,-5.7307334,-1.7918851,0.37
-0.46732998,-5.719718,-1.7879138,0.46
-0.4508196,-5.727705,-1.7899376,0.34
-0.4313197,-5.71369,-1.7839663,0.54
-0.4178131,-5.7496796,-1.7949846,0.32
-0.40805292,-5.7386723,-1.791999,0.51
-0.39356354,-5.7736607,-1.8020185,0.33
-0.37305695,-5.746645,-1.7930487,0.51
-0.35955444,-5.788635,-1.8060664,0.3
-0.34104457,-5.77962,-1.8020931,0.57
-0.3155593,-5.7056007,-1.7771324,0.34
-0.30204836,-5.7465906,-1.7901498,0.48
-0.2962997,-5.7815866,-1.8021563,0.41
-0.27479938,-5.74057,-1.7871884,0.36
-0.2572792,-5.7345567,-1.7852131,0.48
-0.24179102,-5.767545,-1.7952335,0.42
-0.22727303,-5.8015347,-1.8062521,0.41
-0.20878057,-5.7975206,-1.804278,0.38
-0.19128801,-5.8065076,-1.8073018,0.59
-0.18453683,-5.837503,-1.8173096,0.34
-0.16701572,-5.8334894,-1.815334,0.56
-0.14652751,-5.800474,-1.8043636,0.3
-0.12900928,-5.7954617,-1.802388,0.46
-0.111519165,-5.808449,-1.8054111,0.39
-0.09700751,-5.8624387,-1.8234282,0.34
-0.08825146,-5.8634324,-1.82344,0.47
-0.06876418,-5.8434176,-1.8164673,0.41
-0.05125739,-5.8484054,-1.8174906,0.41
-0.032757062,-5.8353915,-1.8135161,0.37
-0.0162585,-5.87238,-1.8255363,0.46
0.0022545012,-5.847367,-1.8165623,0.35
0.02073945,-5.8473535,-1.8165869,0.59
0.02849581,-5.878348,-1.8265954,0.27
0.046992667,-5.8663344,-1.8226205,0.52
0.063514024,-5.8933234,-1.8316407,0.34
0.083010815,-5.8363085,-1.8126696,0.58
0.10049546,-5.886297,-1.8286897,0.27
0.1180048,-5.898285,-1.8327118,0.61
0.12675774,-5.9122787,-1.8367224,0.28
0.14526588,-5.855265,-1.8177496,0.48
0.16277112,-5.8802533,-1.8267708,0.34
0.18125144,-5.930241,-1.8427917,0.44
0.19876681,-5.97223,-1.8568116,0.36
0.21726184,-5.9812174,-1.8598347,0.5
0.23575884,-5.998205,-1.8658571,0.4
0.24452476,-6.0191994,-1.8718671,0.43
0.2630215,-6.0121865,-1.8698909,0.43
0.28151402,-5.9941735,-1.8639152,0.5
0.30002183,-6.0231614,-1.8739367,0.38
0.3175316,-5.990149,-1.8629606,0.46
0.3370309,-6.043137,-1.8809816,0.36
0.35651898,-6.0641246,-1.8880045,0.47
0.3652793,-6.058119,-1.8860157,0.41
0.38478273,-6.094106,-1.8980376,0.36
0.40328407,-6.0890937,-1.8960605,0.47
0.422788,-6.1170816,-1.9060826,0.38
0.44129354,-6.1150694,-1.9051054,0.48
0.45978117,-6.097057,-1.8991289,0.41
0.47928786,-6.1210446,-1.908151,0.37
0.4880527,-6.1190386,-1.9071617,0.5
0.5085455,-6.148026,-1.9171845,0.35
0.52603656,-6.1150136,-1.9062074,0.46
0.54455113,-6.1200023,-1.9082294,0.43
0.56505424,-6.15099,-1.9192517,0.38
0.58254766,-6.123978,-1.9102741,0.48
0.59330666,-6.150972,-1.9202851,0.33
0.61178374,-6.1309595,-1.9133081,0.55
0.62929326,-6.116948,-1.9093295,0.42
0.6488058,-6.132936,-1.9153513,0.36
0.6682903,-6.1329236,-1.915374,0.43
0.6858034,-6.121912,-1.912395,0.41
0.7052939,-6.1249003,-1.9134173,0.38
0.71404636,-6.1178946,-1.9114277,0.42
0.7325485,-6.1148825,-1.9114492,0.31
0.75105304,-6.112871,-1.9114704,0.39
0.77054006,-6.113859,-1.9114926,0.41
0.7880377,-6.098848,-1.9075134,0.45
0.8075494,-6.1098366,-1.9115347,0.34
0.82604,-6.102825,-1.910556,0.52
0.83478886,-6.095819,-1.9085662,0.36
0.85328734,-6.091808,-1.9075872,0.39
0.87279946,-6.101796,-1.9116081,0.37
0.89030653,-6.0917854,-1.9086283,0.34
0.9087923,-6.083774,-1.9066491,0.32
0.92929083,-6.096762,-1.9116708,0.41
0.9370534,-6.086757,-1.9086801,0.36
0.95654035,-6.0877457,-1.9107013,0.37
0.9740578,-6.081735,-1.9087207,0.36
0.99254143,-6.073724,-1.9067411,0.34
1.0120494,-6.080713,-1.9107618,0.3
1.0315388,-6.0817013,-1.9117826,0.3
1.0460484,-6.052692,-1.9028,0.46
1.0538052,-6.042687,-1.8998089,0.52
1.0762974,-6.065675,-1.9088315,0.37
1.0937885,-6.053664,-1.9058506,0.36
1.1113026,-6.0476537,-1.9038695,0.41
1.1298091,-6.0466433,-1.9048889,0.36
1.1462905,-6.0266333,-1.8989074,0.34
1.1580471,-6.042627,-1.9049186,0.36
1.1765461,-6.039616,-1.904938,0.36
1.1930451,-6.0246067,-1.900956,0.32
1.2125437,-6.0275955,-1.9029758,0.36
1.2320385,-6.0295844,-1.9049957,0.36
1.2485482,-6.0175753,-1.9020132,0.38
1.2630434,-5.991566,-1.8940295,0.31
1.2707949,-5.9825616,-1.8920377,0.4
1.2943044,-6.009549,-1.9020599,0.39
1.3047862,-5.960542,-1.8870733,0.51
1.3312961,-6.0025287,-1.9020973,0.32
1.3448087,-5.9765205,-1.8941123,0.35
1.3613057,-5.963511,-1.8911295,0.36
1.3877919,-5.998498,-1.9041537,0.39
1.394556,-5.987494,-1.9011608,0.31
1.4080508,-5.9594855,-1.8931756,0.31
1.4285545,-5.967475,-1.8971951,0.33
1.4410373,-5.9334674,-1.887209,0.29
1.4625326,-5.9444556,-1.8922292,0.05
1.4830341,-5.9514456,-1.8952487,0.0
1.4918036,-5.951441,-1.896257,0.0
1.5082952,-5.9384317,-1.8932735,0.0
1.5277892,-5.9394217,-1.8952919,0.0
1.5422947,-5.920413,-1.8903066,0.0
1.560785,-5.9164033,-1.8903241,0.0
3.3924098,-4.901653,-1.827597,0.07
3.3859277,-4.8606553,-1.8145895,0.16
3.3904178,-4.834655,-1.8085889,0.16
3.3919275,-4.805655,-1.8005863,0.21
3.3944254,-4.7776546,-1.7935845,0.25
3.3881726,-4.7526565,-1.7855786,0.37
3.4116867,-4.75665,-1.79159,0.32
3.4251797,-4.7446465,-1.7905948,0.48
3.4286773,-4.718646,-1.7845933,0.36
3.4451797,-4.711642,-1.7856001,0.38
3.439685,-4.673644,-1.7745929,0.57
3.4504182,-4.6726413,-1.7765975,0.34
3.457913,-4.6526394,-1.7725984,0.51
3.4504368,-4.6136427,-1.7605901,0.33
3.4569316,-4.5926414,-1.7565902,0.51
3.4814122,-4.595635,-1.7616014,0.32
3.4689207,-4.5496397,-1.74759,0.51
3.49143,-4.5516334,-1.7525998,0.31
3.4961822,-4.5436325,-1.7516007,0.5
3.5216606,-4.5476255,-1.7576122,0.29
3.5521817,-4.560617,-1.766627,0.45
3.5816455,-4.5686088,-1.7746404,0.36
3.5881693,-4.549608,-1.7716404,0.51
3.5976593,-4.532606,-1.7686418,0.37
3.5994103,-4.520606,-1.7666408,0.45
3.605913,-4.500605,-1.7626405,0.44
3.6363974,-4.510597,-1.7716544,0.34
3.6349032,-4.4805984,-1.7636491,0.46
3.6454184,-4.4665966,-1.7616512,0.38
3.673901,-4.473589,-1.7696636,0.38
3.6744094,-4.44659,-1.7626594,0.46
3.685168,-4.4465876,-1.7646636,0.38
3.694651,-4.4295855,-1.7626646,0.48
3.718162,-4.43158,-1.7686739,0.35
3.7136662,-4.3985825,-1.7586666,0.55
3.7431386,-4.4055753,-1.766679,0.34
3.748652,-4.385575,-1.7636777,0.55
3.7593968,-4.3845725,-1.7646816,0.32
3.7749083,-4.376569,-1.7666858,0.47
3.7794058,-4.354569,-1.7616837,0.41
3.7889016,-4.3385673,-1.7596843,0.4
3.8024018,-4.3275647,-1.7596872,0.42
3.8149047,-4.3155622,-1.7596896,0.39
3.819395,-4.2935624,-1.755687,0.54
3.841146,-4.3055573,-1.7636969,0.33
3.8436604,-4.2825575,-1.7576936,0.54
3.8591545,-4.2735543,-1.7596973,0.32
3.8626435,-4.2505546,-1.7546941,0.44
3.8861556,-4.2515492,-1.7597023,0.43
3.8716462,-4.2085547,-1.746689,0.41
3.8851626,-4.198552,-1.7466916,0.42
3.9009008,-4.202549,-1.7516977,0.47
3.9243987,-4.2025437,-1.7567055,0.31
3.9259021,-4.1785445,-1.7517011,0.53
3.9323952,-4.159544,-1.7476994,0.33
3.9379063,-4.140544,-1.7446972,0.52
3.9623868,-4.140539,-1.750705,0.33
3.9761548,-4.143536,-1.7547101,0.52
4.0036364,-4.14653,-1.7617195,0.32
4.004135,-4.121532,-1.7557142,0.49
4.0296426,-4.1235266,-1.7617227,0.33
4.0311565,-4.1005273,-1.756718,0.45
4.0276527,-4.07153,-1.7497106,0.43
4.033158,-4.05253,-1.7467079,0.35
4.0339017,-4.04053,-1.7437055,0.41
4.0403843,-4.02153,-1.7407031,0.46
4.0638976,-4.021526,-1.7467102,0.34
4.054404,-3.9875298,-1.7356994,0.45
4.066901,-3.9755282,-1.7357002,0.37
4.081398,-3.965526,-1.7377021,0.53
4.094896,-3.954524,-1.7377034,0.38
4.0886526,-3.9365265,-1.7326972,0.47
4.1121526,-3.9355223,-1.7377037,0.36
4.113646,-3.9125235,-1.7326986,0.58
4.151156,-3.9255157,-1.7447124,0.34
4.176644,-3.9255111,-1.7517194,0.45
4.1941295,-3.9175084,-1.7537221,0.38
4.1878805,-3.8995109,-1.747716,0.48
4.2113924,-3.8985066,-1.753722,0.37
4.1988883,-3.8625114,-1.7427094,0.5
4.222402,-3.8615074,-1.7477155,0.31
4.2479,-3.861503,-1.7547221,0.45
4.2613845,-3.8495014,-1.7547225,0.41
4.293878,-3.8554955,-1.7647324,0.44
4.2926292,-3.8424966,-1.7617285,0.39
4.3111453,-3.8364937,-1.7647316,0.41
4.314635,-3.815495,-1.7607268,0.44
4.3331323,-3.8084924,-1.7637295,0.41
4.349647,-3.8004906,-1.7667314,0.43
4.3501277,-3.776492,-1.7617248,0.41
4.3708825,-3.7834883,-1.7687317,0.36
4.3773766,-3.7654889,-1.7657284,0.47
4.4078884,-3.7694833,-1.7747366,0.37
4.422383,-3.7584822,-1.775737,0.54
4.446885,-3.7564783,-1.7817421,0.33
4.4583735,-3.742478,-1.7817407,0.49
4.4938717,-3.7494717,-1.7917508,0.3
4.4936194,-3.7374728,-1.7897472,0.49
4.509123,-3.727471,-1.7917477,0.36
4.526613,-3.7184696,-1.793749,0.46
4.548118,-3.7134666,-1.7987522,0.31
4.5386214,-3.682471,-1.7897407,0.52
4.573112,-3.6874652,-1.7997496,0.32
4.5578866,-3.6644697,-1.7907394,0.55
4.583368,-3.6614661,-1.7967438,0.32
4.5898833,-3.6444669,-1.79574,0.57
4.6113744,-3.6384645,-1.7997425,0.3
4.6178684,-3.6204653,-1.7977382,0.49
4.6433797,-3.6184618,-1.8037428,0.37
4.637885,-3.5914652,-1.7967329,0.47
4.6556215,-3.5934627,-1.8017372,0.3
4.657134,-3.5724645,-1.7987307,0.49
4.67363,-3.5624633,-1.8007307,0.32
4.6801224,-3.5444643,-1.7987261,0.49
4.705621,-3.5414612,-1.80573,0.32
4.707131,-3.520463,-1.8017232,0.45
4.7056236,-3.496466,-1.796715,0.4
4.723368,-3.4984634,-1.801719,0.4
4.72787,-3.4794648,-1.7987134,0.42
4.742381,-3.4684641,-1.8007123,0.34
4.7528706,-3.4534643,-1.8007091,0.54
4.763383,-3.4394646,-1.8007063,0.32
4.762874,-3.4164672,-1.7966981,0.5
4.7963676,-3.4184625,-1.8057047,0.31
4.78414,-3.3994663,-1.798696,0.48
4.787653,-3.380468,-1.7966899,0.31
4.804135,-3.369467,-1.7986889,0.54
4.7916327,-3.3384721,-1.7896757,0.43
4.804133,-3.325472,-1.7906733,0.37
4.8156495,-3.312472,-1.7916703,0.38
4.809406,-3.2974749,-1.7866639,0.34
4.8258886,-3.286474,-1.7896626,0.43
4.8383894,-3.273474,-1.79066,0.35
4.840888,-3.2534761,-1.787653,0.41
4.852382,-3.2394764,-1.7886496,0.38
4.875897,-3.2344742,-1.7936515,0.36
4.887393,-3.2204747,-1.7946479,0.38
4.914139,-3.2274709,-1.8036547,0.31
4.9506454,-3.2304664,-1.8136613,0.34
4.9701405,-3.2214653,-1.8176607,0.36
4.9996476,-3.2194624,-1.8256643,0.36
5.0381384,-3.222458,-1.837671,0.37
5.0636225,-3.216456,-1.8436724,0.37
5.081383,-3.217454,-1.8486753,0.32
5.1218586,-3.2204494,-1.860682,0.33
5.1443734,-3.213448,-1.8656824,0.37
5.1728725,-3.2094457,-1.8736848,0.39
5.193376,-3.2004447,-1.877684,0.44
5.202879,-3.1844459,-1.8776789,0.36
5.20837,-3.1654477,-1.8756719,0.42
5.2211227,-3.1624472,-1.8786722,0.38
5.221638,-3.14145,-1.8756639,0.4
5.2381115,-3.12845,-1.8786607,0.32
5.235621,-3.1054535,-1.873651,0.43
5.2431273,-3.0884552,-1.873645,0.35
5.2296457,-3.0594604,-1.8646314,0.34
5.245133,-3.0464606,-1.8666278,0.52
5.237885,-3.0314636,-1.8626207,0.43
5.2274013,-3.0044684,-1.8546083,0.39
5.222902,-2.980472,-1.8495977,0.35
5.2193875,-2.9564757,-1.8445872,0.36
5.2199097,-2.9364786,-1.8415787,0.32
5.2214165,-2.9164813,-1.8395705,0.34
5.2111526,-2.8994846,-1.833562,0.37
5.216651,-2.8814867,-1.8325549,0.34
5.2231593,-2.8644886,-1.8315485,0.32
5.2336617,-2.8494897,-1.832543,0.34
5.2351646,-2.8294926,-1.8295345,0.39
5.2416716,-2.8124945,-1.8295279,0.33
5.23518,-2.7884986,-1.8235167,0.35
5.2459197,-2.7834983,-1.8255156,0.34
5.2574325,-2.7694995,-1.8275106,0.36
5.2559214,-2.7475028,-1.8235009,0.35
5.2514462,-2.7255065,-1.8184906,0.36
5.2699428,-2.7145066,-1.8224875,0.34
5.2694387,-2.6935098,-1.819478,0.34
5.2681866,-2.6825118,-1.817473,0.4
5.277701,-2.6675131,-1.8184673,0.32
5.281193,-2.6485157,-1.8164591,0.3
5.279697,-2.6275191,-1.8134494,0.39
5.2912107,-2.6135204,-1.814444,0.37
5.2837124,-2.5895245,-1.8084323,0.36
5.2772236,-2.5665286,-1.8034213,0.33
5.2859683,-2.560529,-1.8054192,0.38
5.295456,-2.5445309,-1.8064126,0.36
5.288963,-2.521535,-1.8014014,0.33
5.307467,-2.5105352,-1.8053979,0.38
5.3089757,-2.4915383,-1.8033892,0.36
5.313473,-2.4735405,-1.801381,0.34
5.313967,-2.4535437,-1.7993717,0.34
5.3047247,-2.4395468,-1.7953644,0.33
5.3122344,-2.4235487,-1.7953575,0.35
5.322735,-2.4085503,-1.7963511,0.37
5.3192453,-2.387554,-1.7923409,0.32
5.319734,-2.3675573,-1.7903314,0.38
5.333251,-2.3545585,-1.7923261,0.33
5.335003,-2.3455596,-1.7913219,0.34
5.324512,-2.3215644,-1.7853096,0.34
5.3380036,-2.307566,-1.7883036,0.37
5.339503,-2.2885687,-1.7862946,0.32
5.3410006,-2.2695718,-1.7842854,0.34
5.3605056,-2.2585723,-1.7882813,0.38
5.356017,-2.237576,-1.7852708,0.34
5.3647685,-2.2315767,-1.7862684,0.36
5.3712626,-2.2145789,-1.7862605,0.31
5.3737736,-2.1965818,-1.7852517,0.37
5.3782883,-2.1795845,-1.7852436,0.32
5.3847823,-2.1625872,-1.7852355,0.34
5.3892713,-2.1445897,-1.7842268,0.4
5.390791,-2.1265929,-1.7822179,0.31
5.39353,-2.1175942,-1.7822136,0.35
5.387052,-2.096598,-1.7782024,0.33
5.391539,-2.078601,-1.7771937,0.33
5.3970413,-2.0616035,-1.7771854,0.31
5.398557,-2.0436065,-1.7751763,0.41
5.3990564,-2.0246098,-1.7731665,0.32
5.404816,-2.0176105,-1.7741634,0.33
5.4042983,-1.9976143,-1.7721531,0.35
5.4078183,-1.9806169,-1.7711445,0.35
5.422311,-1.9666187,-1.7741381,0.35
5.417829,-1.9466225,-1.7711275,0.35
5.4303155,-1.9316245,-1.7731203,0.35
5.4378242,-1.9156269,-1.7741123,0.35
5.4155855,-1.8986311,-1.7651024,0.33
5.428072,-1.883633,-1.7680951,0.35
5.434589,-1.8676356,-1.768087,0.35
5.4280925,-1.8466396,-1.7640758,0.33
5.4296007,-1.8286428,-1.7630663,0.34
5.4470983,-1.8156443,-1.7670603,0.35
5.4408617,-1.8046465,-1.7640542,0.35
5.4373612,-1.7846503,-1.7610433,0.31
5.4598694,-1.7736514,-1.7670386,0.37
5.452376,-1.7526555,-1.763027,0.36
5.4538827,-1.7346587,-1.7610173,0.36
5.4553623,-1.715662,-1.7600071,0.33
5.450891,-1.6966658,-1.7569969,0.37
5.451643,-1.6876673,-1.755992,0.34
5.4671383,-1.6736692,-1.7599851,0.32
5.464649,-1.6546729,-1.7569747,0.42
5.460148,-1.6346767,-1.7539637,0.31
5.470632,-1.6186792,-1.7559553,0.32
5.46216,-1.5986832,-1.7519442,0.44
5.4686494,-1.5816861,-1.7519351,0.28
5.4724035,-1.5736876,-1.7529308,0.35
5.469909,-1.5546911,-1.7509203,0.32
5.463417,-1.5346951,-1.746909,0.34
5.485919,-1.5226965,-1.7529032,0.41
5.4734173,-1.5007012,-1.7468907,0.3
5.4759355,-1.4837042,-1.7468814,0.36
5.4894276,-1.4687065,-1.7498734,0.35
5.4671826,-1.4537102,-1.7418643,0.31
5.4696994,-1.4367133,-1.7408549,0.34
5.4842114,-1.4227154,-1.7448475,0.4
5.4777117,-1.4027195,-1.7408361,0.32
5.476201,-1.383723,-1.7388254,0.34
5.4797106,-1.3667263,-1.738816,0.34
5.4724584,-1.3557285,-1.7358096,0.36
5.470973,-1.3377321,-1.7337995,0.36
5.4834757,-1.3227345,-1.7367913,0.36
5.469987,-1.301739,-1.731779,0.33
5.4834833,-1.2867414,-1.7347709,0.4
5.4940014,-1.271744,-1.7367625,0.36
5.48451,-1.2517481,-1.732751,0.34
5.4752645,-1.2407506,-1.7287445,0.32
5.491745,-1.225753,-1.7337364,0.37
5.4842653,-1.2067568,-1.7297252,0.36
5.484763,-1.1887604,-1.728715,0.34
5.4942617,-1.1727631,-1.730706,0.33
5.4827743,-1.1527674,-1.7256942,0.34
5.485286,-1.1357707,-1.7256845,0.34
5.502022,-1.1297714,-1.7306814,0.39
5.482549,-1.108776,-1.7236688,0.36
5.4840384,-1.0907794,-1.7226584,0.3
5.5055556,-1.0777814,-1.7286514,0.39
5.4930663,-1.0577856,-1.7236395,0.34
5.493561,-1.0397892,-1.723629,0.35
5.495077,-1.0227926,-1.722619,0.34
5.497811,-1.0137943,-1.723614,0.32
5.5003223,-0.9967975,-1.7236041,0.38
5.5048237,-0.9798008,-1.7235942,0.36
5.49133,-0.9598051,-1.7185822,0.36
5.5048428,-0.9448077,-1.7215735,0.36
5.501354,-0.92681134,-1.7195629,0.33
5.488108,-0.91581386,-1.7145562,0.34
5.4885983,-0.89781743,-1.7145456,0.36
5.494122,-0.8818205,-1.7155362,0.34
5.4906306,-0.8638242,-1.7135255,0.31
5.4841228,-0.84482807,-1.7105142,0.34
5.5006275,-0.8298307,-1.7155056,0.41
5.486152,-0.8108348,-1.709494,0.31
5.4928975,-0.80283624,-1.7114893,0.33
5.498394,-0.7858396,-1.7124794,0.35
5.488895,-0.7668436,-1.7094679,0.37
5.479422,-0.74884737,-1.7054571,0.31
5.490923,-0.7328504,-1.7084476,0.33
5.485433,-0.71485406,-1.7064368,0.34
5.49016,-0.7058558,-1.7074314,0.39
5.489679,-0.6888592,-1.7064211,0.3
5.4891977,-0.67186266,-1.706411,0.38
5.487691,-0.6538663,-1.7044002,0.3
5.494186,-0.63686967,-1.70639,0.37
5.484705,-0.6188735,-1.7023791,0.3
5.484222,-0.6018769,-1.7023689,0.33
5.4939637,-0.5938784,-1.7053641,0.32
5.4824576,-0.5748824,-1.7013525,0.44
5.4819736,-0.5578859,-1.7003423,0.19
5.48847,-0.5408892,-1.702332,0.16
5.4749937,-0.522893,-1.6973209,0.23
5.4924893,-0.5068961,-1.7023114,0.3
5.487246,-0.49789795,-1.7013059,0.4
5.479751,-0.47990167,-1.697295,0.3
5.476273,-0.4629052,-1.6962845,0.32
5.4797783,-0.44590864,-1.6972742,0.33
5.4702845,-0.42791238,-1.6942632,0.33
5.473789,-0.41091582,-1.6942528,0.34
5.4782925,-0.39391923,-1.6952425,0.32
5.4780354,-0.38492104,-1.695237,0.35
5.469565,-0.3679246,-1.6922266,0.36
5.4740686,-0.35092804,-1.6942163,0.3
5.470558,-0.33293176,-1.6922052,0.4
5.4730663,-0.3159352,-1.6931947,0.31
5.477571,-0.29893863,-1.6941844,0.35
5.4680977,-0.2819422,-1.6911739,0.34
5.475828,-0.27294397,-1.6941684,0.36
5.4803343,-0.25594744,-1.695158,0.31
5.474854,-0.23895092,-1.6931475,0.4
5.463351,-0.22095469,-1.6891364,0.31
5.4758773,-0.2049579,-1.6931266,0.39
5.4683685,-0.18696164,-1.6901156,0.32
5.475132,-0.17896324,-1.6931106,0.32
5.464625,-0.16096696,-1.6890996,0.36
5.4641366,-0.14397044,-1.6890891,0.34
5.471643,-0.12697393,-1.6920786,0.36
5.466158,-0.10997742,-1.6900681,0.33
5.4616723,-0.09298092,-1.6890576,0.32
5.4621544,-0.07498461,-1.6890464,0.33
5.4649234,-0.06698625,-1.6900415,0.32
5.4764323,-0.049989723,-1.694031,0.4
5.4629474,-0.032993224,-1.6890204,0.32
5.47043,-0.014996918,-1.6920093,0.32
5.315823,0.005998791,-1.6899964,0.16
5.316351,0.021995567,-1.6909864,0.17
5.306848,0.03899215,-1.686976,0.04
5.3083463,0.055988725,-1.6879654,0.07
5.3108754,0.0719855,-1.6889555,0.09
5.31061,0.08098368,-1.6889501,0.04
5.3121386,0.09698046,-1.6899402,0.07
5.307635,0.113977045,-1.6889296,0.08
5.31614,0.13097359,-1.6919191,0.08
5.299656,0.14697044,-1.6869092,0.04
5.310164,0.16396697,-1.6908987,0.08
5.3056593,0.18096356,-1.6888882,0.08
5.308427,0.18896194,-1.6908832,0.08
5.3109293,0.20595852,-1.6918727,0.04
5.3104296,0.2229551,-1.6918622,0.08
5.2979426,0.23895194,-1.6878523,0.15
5.3004465,0.2559485,-1.6888418,0.16
5.305955,0.27294505,-1.6918312,0.16
5.2887225,0.27994376,-1.6858269,0.17
5.2982087,0.2979401,-1.6898159,0.17
5.29874,0.3139369,-1.6908058,0.17
5.2972383,0.33093348,-1.6907953,0.17
5.295737,0.34793007,-1.6907848,0.04
5.2922606,0.3639269,-1.689775,0.08
5.2717476,0.37992388,-1.6827651,0.04
5.2895217,0.38892192,-1.6897595,0.08
5.2860155,0.40591854,-1.688749,0.15
5.282539,0.42191538,-1.6887391,0.04
5.2730465,0.4379123,-1.6857293,0.07
5.2885585,0.4559085,-1.6917181,0.08
5.2840495,0.47290516,-1.6907076,0.08
5.280573,0.48890203,-1.6906977,0.08
5.281312,0.49790022,-1.6906921,0.04
5.2718177,0.5138971,-1.6886823,0.07
5.2883406,0.5318934,-1.694671,0.08
5.282858,0.5478902,-1.6936612,0.09
5.26935,0.56388724,-1.6896515,0.08
5.277853,0.58188355,-1.6936402,0.08
5.277357,0.5988802,-1.6936297,0.16
5.2711325,0.6058789,-1.6916255,0.16
5.2716403,0.6228755,-1.693615,0.17
5.27513,0.6408718,-1.6956037,0.16
5.2686424,0.6568688,-1.693594,0.16
5.262154,0.67286575,-1.6925842,0.16
5.2596807,0.6888626,-1.6925744,0.04
5.266417,0.6988605,-1.6955681,0.07
5.259928,0.71485746,-1.6935583,0.04
5.2624464,0.7318541,-1.6955478,0.07
5.2449408,0.74685144,-1.6905389,0.04
5.2344623,0.76184875,-1.6885297,0.04
5.2459617,0.7808448,-1.6935179,0.08
5.247477,0.79784137,-1.6945075,0.04
5.242223,0.80583996,-1.6935027,0.07
5.236737,0.82183695,-1.6924928,0.04
5.2522607,0.8408329,-1.699481,0.07
5.228748,0.8548307,-1.6914728,0.04
5.235261,0.87282705,-1.6954616,0.08
5.2387896,0.8898236,-1.6974511,0.08
5.2362895,0.90682036,-1.6974407,0.08
5.2320385,0.91481894,-1.697436,0.04
5.225547,0.93081594,-1.6954263,0.07
5.218049,0.94681305,-1.6944168,0.04
5.21058,0.9618103,-1.6934077,0.07
5.207074,0.9788071,-1.6933974,0.04
5.2115836,0.9968035,-1.6953863,0.07
5.2021017,1.0118009,-1.6933774,0.04
5.212848,1.0227985,-1.6983705,0.07
5.2203784,1.0407948,-1.7023593,0.08
5.2018733,1.0547925,-1.6973512,0.08
5.2003803,1.0717894,-1.697341,0.09
5.1888857,1.0867869,-1.695332,0.04
5.190411,1.1037836,-1.6973218,0.07
5.1841455,1.1117822,-1.695317,0.16
5.1746607,1.1267797,-1.6933082,0.18
5.1841807,1.1457758,-1.6982965,0.16
5.1596847,1.1577742,-1.6912899,0.17
5.16219,1.1757708,-1.6932789,0.18
5.1636896,1.1937673,-1.695268,0.17
5.158229,1.2087647,-1.6952592,0.16
5.157973,1.2177631,-1.6952537,0.16
5.1664944,1.2367591,-1.7002422,0.16
5.1599994,1.2527564,-1.6992328,0.18
5.15149,1.2687536,-1.6982234,0.17
5.1530232,1.2857504,-1.7002131,0.16
5.133519,1.2987486,-1.6952059,0.17
5.136258,1.3087467,-1.6971998,0.17
5.131776,1.3247439,-1.6971904,0.18
5.1202984,1.3387417,-1.6941824,0.17
5.1158166,1.354739,-1.6941731,0.16
5.1253276,1.3747349,-1.6991609,0.16
5.107832,1.3877331,-1.6951536,0.17
5.099346,1.4027307,-1.693145,0.04
5.1111026,1.414728,-1.6991376,0.08
5.108609,1.431725,-1.6991277,0.09
5.1081047,1.4497218,-1.7011169,0.08
5.101637,1.4647193,-1.7011083,0.08
5.087131,1.4787172,-1.6971005,0.08
5.0826497,1.4947146,-1.6970912,0.08
5.099149,1.5177097,-1.7050772,0.08
5.0819235,1.52071,-1.700076,0.04
5.0804133,1.5387068,-1.7010655,0.07
5.0839467,1.5567033,-1.704055,0.04
5.0834475,1.5747001,-1.7060444,0.08
5.0729446,1.589698,-1.704036,0.15
5.0654683,1.6046956,-1.7040275,0.16
5.046976,1.6166942,-1.6990213,0.04
5.0607414,1.6296912,-1.7050132,0.08
5.0712605,1.6506871,-1.7110006,0.08
5.042759,1.6596868,-1.7019964,0.14
5.051263,1.6806827,-1.707984,0.17
5.0417676,1.6956805,-1.7059758,0.16
5.032299,1.7096785,-1.704968,0.04
5.0470557,1.7236754,-1.7109594,0.07
5.032568,1.7366738,-1.7079525,0.04
5.0300837,1.7536709,-1.7099428,0.08
5.0205874,1.7686689,-1.7079346,0.04
5.021079,1.7876655,-1.7109238,0.08
5.0136023,1.8026632,-1.7099155,0.08
5.0131125,1.8206602,-1.7119054,0.08
5.003861,1.8266597,-1.7099023,0.04
5.012381,1.8476557,-1.71489,0.07
4.993902,1.8586547,-1.7108846,0.04
5.0064125,1.8816501,-1.717871,0.07
4.989926,1.893649,-1.713865,0.14
4.9934287,1.9136454,-1.7178535,0.17
5.008181,1.928642,-1.7238444,0.1
4.9896994,1.9396412,-1.7198391,0.14
4.984218,1.9556388,-1.7198304,0.13
4.996715,1.9796342,-1.7278163,0.18
4.969241,1.9866345,-1.7198138,0.23
4.9607553,2.0016327,-1.7188059,0.25
4.9402714,2.0116322,-1.7138015,0.19
4.947001,2.0246296,-1.7177938,0.27
4.952535,2.044626,-1.7217826,0.19
4.9510474,2.062623,-1.7237726,0.23
4.943547,2.078621,-1.7237642,0.18
4.9470634,2.0986173,-1.7277529,0.23
4.9405746,2.1146152,-1.7277446,0.18
4.929083,2.1286135,-1.7267376,0.25
4.934862,2.1396115,-1.7297311,0.2
4.9273634,2.1556091,-1.7297229,0.23
4.909879,2.1666088,-1.7257179,0.2
4.8983846,2.180607,-1.724711,0.27
4.8808975,2.1916065,-1.7207061,0.33
4.865406,2.2036057,-1.7177006,0.33
4.853908,2.2176042,-1.7166939,0.33
4.845681,2.222604,-1.7146916,0.31
4.8151608,2.2286053,-1.7056904,0.25
4.7936673,2.2376053,-1.700687,0.24
4.7591944,2.2396076,-1.6906883,0.04
4.7286863,2.2446089,-1.6816877,0.15
4.7061963,2.2526095,-1.676685,0.19
4.7047067,2.2706068,-1.6786755,0.18
4.694446,2.2756069,-1.6766737,0.17
4.69397,2.2936041,-1.6786642,0.18
4.677473,2.3046038,-1.6756597,0.16
4.6629996,2.3156033,-1.672655,0.17
4.6555123,2.3306017,-1.6726477,0.04
4.646024,2.3446002,-1.6726412,0.17
4.6297584,2.3466012,-1.6676414,0.18
4.6282716,2.3645988,-1.6706321,0.28
4.6407914,2.3895943,-1.6786182,0.21
4.6293035,2.4025934,-1.6766124,0.12
4.614826,2.4135928,-1.6746079,0.21
4.6003475,2.4245923,-1.6716034,0.11
4.5920806,2.4305923,-1.6706011,0.16
4.594602,2.4505892,-1.6745906,0.21
4.5741158,2.4585898,-1.6695883,0.1
4.5566173,2.46859,-1.6655848,0.18
4.555136,2.4865875,-1.6685756,0.2
4.5426292,2.4995868,-1.6675704,0.1
4.5331645,2.5125859,-1.6665646,0.18
4.526897,2.5195854,-1.6655617,0.2
4.5204234,2.534584,-1.6665547,0.1
4.509944,2.547583,-1.6655493,0.16
4.485439,2.5535843,-1.6595485,0.05
4.487968,2.5735815,-1.6635383,0.18
4.4764724,2.5865808,-1.662533,0.2
4.4679947,2.60058,-1.662527,0.1
4.464746,2.6085792,-1.6635232,0.18
4.4412475,2.6145806,-1.6575227,0.21
4.430764,2.62758,-1.6565174,0.1
4.4302797,2.6465776,-1.6605082,0.16
4.4147706,2.6575775,-1.6575044,0.05
4.4082975,2.6725762,-1.6584978,0.18
4.3938026,2.6835763,-1.656494,0.2
4.391568,2.6915753,-1.6564904,0.1
4.3790784,2.7035751,-1.655486,0.18
4.3665876,2.715575,-1.6544816,0.11
4.3721023,2.7385716,-1.66047,0.16
4.345616,2.741574,-1.6524717,0.21
4.333123,2.7535737,-1.6514673,0.1
4.3386426,2.7765703,-1.6574558,0.18
4.3383927,2.786569,-1.6594511,0.11
4.3089013,2.7875721,-1.6514541,0.17
4.2944245,2.7975726,-1.6494511,0.05
4.286936,2.8125715,-1.649445,0.17
4.275432,2.8255713,-1.6494404,0.11
4.2739434,2.8445692,-1.6524318,0.16
4.2597127,2.8445706,-1.6484334,0.21
4.2502165,2.85857,-1.6484282,0.1
4.244737,2.874569,-1.6494216,0.18
4.2332573,2.886569,-1.6494176,0.1
4.212773,2.8925705,-1.6444175,0.18
4.2002745,2.9045706,-1.6434137,0.05
4.194772,2.9215693,-1.6454067,0.18
4.1865373,2.92557,-1.643406,0.2
4.1800427,2.9415689,-1.6453997,0.1
4.179555,2.9615664,-1.6493908,0.16
4.151071,2.96157,-1.6413947,0.05
4.146588,2.9785688,-1.6433878,0.16
4.1391015,2.993568,-1.6443822,0.05
4.117855,2.9885714,-1.6373875,0.16
4.118364,3.009569,-1.6423782,0.2
4.1149,3.0265675,-1.6443713,0.1
4.0974064,3.034569,-1.6413703,0.16
4.0779233,3.0405707,-1.6373706,0.05
4.073419,3.0585697,-1.6403633,0.17
4.0639462,3.0715694,-1.6403592,0.19
4.0616946,3.0805688,-1.6413558,0.1
4.041213,3.085571,-1.6363567,0.18
4.0317163,3.0995708,-1.6373523,0.05
4.0322356,3.1205688,-1.6423433,0.16
4.0147586,3.1275704,-1.638343,0.05
4.0012593,3.138571,-1.6373407,0.17
3.9807708,3.1435735,-1.6323417,0.05
3.9795158,3.1535726,-1.6343379,0.18
3.9740465,3.1695719,-1.636332,0.05
3.9575596,3.1775734,-1.6343316,0.16
3.9440572,3.188574,-1.6323292,0.2
3.936575,3.203574,-1.6343244,0.09
3.9271016,3.216574,-1.6343207,0.16
3.914595,3.2285748,-1.634318,0.21
3.9093602,3.2345748,-1.6343164,0.1
3.8948839,3.2435763,-1.6323153,0.17
3.8823757,3.255577,-1.6313127,0.21
3.8748949,3.2705767,-1.632308,0.1
3.8564084,3.276579,-1.629309,0.16
3.8359268,3.2805817,-1.6253111,0.05
3.837439,3.3035796,-1.6313019,0.16
3.8131735,3.2945843,-1.6223098,0.05
3.8167043,3.3185816,-1.6292999,0.16
3.7962177,3.3225844,-1.6243021,0.05
3.7927492,3.3405833,-1.6272957,0.16
3.7712407,3.3445864,-1.6232984,0.05
3.7657561,3.3615859,-1.625293,0.15
3.7475083,3.3565893,-1.6202985,0.05
3.748032,3.3785872,-1.62529,0.17
3.7285364,3.3835902,-1.621292,0.05
3.7230537,3.4005897,-1.6232867,0.16
3.7015598,3.403593,-1.61929,0.05
3.6950803,3.4195929,-1.6212853,0.15
3.6725843,3.4215965,-1.6162894,0.05
3.6733384,3.4335954,-1.6192847,0.16
3.6598709,3.4425972,-1.6182842,0.05
3.644383,3.4505992,-1.6162846,0.16
3.6228793,3.4536026,-1.6112882,0.05
3.6244144,3.4766006,-1.6172794,0.16
3.6039078,3.480604,-1.6132826,0.05
3.595411,3.4956045,-1.614279,0.15
3.587177,3.4986057,-1.6132798,0.05
3.572685,3.5076075,-1.6122798,0.17
3.5602124,3.5176091,-1.6112791,0.18
3.5557373,3.5356088,-1.6142739,0.09
3.545244,3.5486097,-1.6152717,0.14
3.5197515,3.5466146,-1.6092783,0.05
3.5225148,3.5606132,-1.6132728,0.18
3.5120208,3.5736141,-1.6132708,0.19
3.4905245,3.575618,-1.6092752,0.1
3.4710474,3.5786216,-1.605279,0.18
3.468557,3.5996206,-1.6092724,0.2
3.4470553,3.6016247,-1.6052771,0.1
3.440585,3.617625,-1.6072732,0.18
3.4373298,3.6266253,-1.6092709,0.21
3.421852,3.633628,-1.6072726,0.1
3.4123597,3.6476288,-1.6082704,0.16
3.3898716,3.6476333,-1.6032761,0.05
3.383404,3.6636336,-1.6052725,0.18
3.354882,3.6586394,-1.5982817,0.05
3.3493958,3.6766398,-1.6012774,0.17
3.3331597,3.6706433,-1.5962837,0.05
3.3316822,3.6926425,-1.6012769,0.17
3.31219,3.6956463,-1.5972812,0.11
3.3127208,3.7196448,-1.6032734,0.17
3.2852292,3.713651,-1.596283,0.05
3.282735,3.7356503,-1.6012766,0.17
3.2582455,3.7326558,-1.5942844,0.05
3.2529886,3.7396564,-1.5952837,0.16
3.2335098,3.7416606,-1.5912887,0.05
3.2350318,3.7676587,-1.5982802,0.16
3.2115393,3.765664,-1.5932876,0.05
3.1960497,3.7726672,-1.59129,0.15
3.1855764,3.784669,-1.5922894,0.18
3.1730766,3.7956712,-1.5922898,0.09
3.162822,3.7966733,-1.5902926,0.09
3.1513457,3.8076756,-1.5912929,0.16
3.1298685,3.8066802,-1.5852996,0.05
3.1243765,3.8256807,-1.5892956,0.16
3.107879,3.8316844,-1.587299,0.05
3.103413,3.8506846,-1.5912949,0.16
3.0809271,3.8486898,-1.5863025,0.2
3.0756717,3.8556907,-1.5873021,0.1
3.0721753,3.8776908,-1.592297,0.15
3.0517137,3.8766956,-1.5873038,0.05
3.0432148,3.8926969,-1.590302,0.18
3.0297291,3.9016998,-1.5893039,0.11
3.0182545,3.9127023,-1.5903046,0.18
3.005015,3.9087055,-1.5863101,0.11
2.992496,3.9207082,-1.5873109,0.18
2.9710212,3.9187133,-1.5823187,0.05
2.9675531,3.9397137,-1.5873141,0.17
2.9480312,3.9427185,-1.58432,0.11
2.9365554,3.9537208,-1.5843209,0.18
2.9210742,3.9597247,-1.5833247,0.1
2.9198458,3.9707246,-1.5853221,0.16
2.8963504,3.9667306,-1.5803314,0.05
2.8928714,3.988731,-1.5853269,0.16
2.869372,3.984737,-1.5793363,0.05
2.866903,4.0077367,-1.5853313,0.14
2.8393908,3.9987445,-1.5773435,0.05
2.836925,4.0217443,-1.5833386,0.16
2.8236701,4.017748,-1.5793444,0.05
2.8171964,4.035749,-1.5833423,0.16
2.7997139,4.038754,-1.580348,0.2
2.7852175,4.046757,-1.5803515,0.1
2.7867558,4.0757565,-1.5883437,0.16
2.747223,4.049768,-1.5733651,0.05
2.7457583,4.074767,-1.5803596,0.17
2.7365105,4.0757704,-1.578363,0.2
2.7200313,4.0797744,-1.5763682,0.1
2.7165556,4.102775,-1.5823642,0.15
2.6880434,4.090783,-1.5733783,0.05
2.6875794,4.1177826,-1.581372,0.18
2.6600707,4.1067905,-1.5733857,0.05
2.6586013,4.1327906,-1.5803802,0.16
2.6363368,4.114797,-1.5713933,0.05
2.6318593,4.1367984,-1.57639,0.16
2.6173768,4.143802,-1.5753945,0.2
2.6039038,4.151806,-1.5753982,0.1
2.5904136,4.1608095,-1.5754018,0.17
2.5699055,4.159816,-1.5714105,0.21
2.569674,4.1738153,-1.5754076,0.1
2.5531871,4.17782,-1.5734137,0.18
2.533702,4.1768265,-1.5694222,0.2
2.523225,4.1898293,-1.5714239,0.1
2.5157475,4.2078314,-1.5754234,0.16
2.4862359,4.19184,-1.5654396,0.05
2.4787593,4.2098427,-1.569439,0.17
2.4695036,4.2108455,-1.5684431,0.21
2.4550169,4.2178497,-1.5674479,0.1
2.4415412,4.2258534,-1.5674523,0.18
2.4290462,4.2368574,-1.5694556,0.2
2.4125528,4.240863,-1.5674623,0.09
2.406094,4.259865,-1.5714614,0.16
2.3765912,4.241874,-1.5614786,0.05
2.380358,4.2638726,-1.5684725,0.17
2.3538542,4.250881,-1.5604875,0.05
2.3463707,4.2698836,-1.5644872,0.17
2.3359,4.282887,-1.5664896,0.2
2.317395,4.2838926,-1.5644982,0.1
2.3099315,4.301895,-1.5674983,0.16
2.2814207,4.2849045,-1.5585152,0.05
2.2811954,4.299905,-1.5625125,0.16
2.2696998,4.3129086,-1.5645157,0.19
2.2532303,4.3149137,-1.5625234,0.17
2.2297282,4.305922,-1.5565366,0.04
2.2242527,4.3289237,-1.5625352,0.15
2.2027287,4.3249307,-1.5575466,0.05
2.192277,4.3369346,-1.5595497,0.17
2.1880362,4.3459363,-1.5615503,0.2
2.1705348,4.347942,-1.5595587,0.1
2.1620698,4.364945,-1.5635601,0.15
2.1365707,4.3509536,-1.5555757,0.05
2.1300917,4.3729563,-1.5605752,0.16
2.1045732,4.3599653,-1.5535908,0.05
2.097111,4.378968,-1.5575916,0.16
2.085871,4.373972,-1.5545983,0.05
2.0783837,4.394974,-1.5595987,0.16
2.058889,4.3919816,-1.5556097,0.19
2.0484161,4.4059854,-1.558613,0.18
2.0279171,4.4009924,-1.5536249,0.1
