X,Y,Z,Intensity
7.6214724,-9.500284,-0.693124,0.18
7.22817,-8.946195,-0.64288664,0.69
7.2087245,-8.865183,-0.6368583,0.22
9.393485,-11.517633,-0.89104116,0.41
7.182826,-8.721163,-0.6278093,0.21
7.200371,-8.68816,-0.6268019,0.64
8.703607,-10.494468,-0.80060786,0.2
8.727148,-10.456466,-0.799599,0.57
8.974613,-10.688508,-0.82471013,0.23
8.770234,-10.376457,-0.7965792,0.61
9.045697,-10.639506,-0.8247041,0.21
8.835315,-10.323455,-0.7965711,0.52
8.956818,-10.400471,-0.8076133,0.27
9.081557,-10.514492,-0.81966794,0.48
9.29204,-10.693526,-0.8397557,0.37
9.419541,-10.772544,-0.85079896,0.49
9.462083,-10.754543,-0.85179853,0.3
8.999778,-10.159442,-0.79553956,0.49
8.793395,-9.862392,-0.7694137,0.32
8.841927,-9.855393,-0.7714179,0.3
8.777721,-9.752377,-0.76237524,0.41
9.547028,-10.5495205,-0.8447408,0.55
9.353638,-10.269474,-0.8196222,0.35
9.163242,-9.995428,-0.7945062,0.66
9.58667,-10.397503,-0.8376944,0.61
9.377276,-10.104452,-0.8115697,0.48
8.725243,-9.365321,-0.73823994,0.5
8.682809,-9.262304,-0.73120016,0.25
8.61837,-9.135283,-0.7211496,0.46
9.112777,-9.6053705,-0.7713688,0.45
9.147307,-9.581369,-0.77136487,0.3
8.888935,-9.25131,-0.74122214,0.62
8.680533,-8.975262,-0.71510386,0.27
8.626323,-8.891248,-0.708069,0.48
8.628872,-8.83924,-0.7050519,0.48
8.669398,-8.825239,-0.7070521,0.45
8.6679535,-8.77023,-0.7040334,0.52
8.808456,-8.858249,-0.7160798,0.47
8.808996,-8.80324,-0.7130612,0.5
8.859756,-8.827246,-0.7170752,0.39
8.782323,-8.695223,-0.7060215,0.58
8.8758335,-8.733232,-0.7130451,0.32
8.932366,-8.735233,-0.7160522,0.63
9.02889,-8.776243,-0.72307706,0.26
9.027432,-8.720235,-0.72005767,0.44
9.039973,-8.678227,-0.7190446,0.55
9.132716,-8.74024,-0.727076,0.46
9.211248,-8.762246,-0.732092,0.36
9.284767,-8.777249,-0.7371051,0.31
9.31831,-8.755248,-0.7371009,0.46
13.3549,-12.500961,-1.1448208,0.28
13.342458,-12.411948,-1.139787,0.45
13.251027,-12.2489195,-1.1267191,0.34
13.335788,-12.289928,-1.1337411,0.23
13.374326,-12.247924,-1.1337287,0.45
13.379878,-12.176912,-1.1307029,0.45
13.380432,-12.101901,-1.126675,0.44
13.391975,-12.035892,-1.1236513,0.45
13.47651,-12.036895,-1.1286582,0.44
13.529271,-12.0458975,-1.1316656,0.43
13.616807,-12.048901,-1.1366733,0.41
13.697342,-12.044903,-1.1416779,0.43
13.775873,-12.037904,-1.1456811,0.43
13.850407,-12.026904,-1.1486825,0.54
13.279072,-11.455795,-1.0894257,0.46
13.280624,-11.385784,-1.0863994,0.41
13.2394085,-11.314771,-1.0803697,0.36
13.304939,-11.29877,-1.0833684,0.36
13.309489,-11.231759,-1.0803435,0.62
13.405021,-11.241763,-1.086354,0.34
13.475554,-11.229763,-1.0893544,0.39
13.441108,-11.1297455,-1.082314,0.57
6.628294,-5.4436173,-0.42568964,0.25
6.627838,-5.4096103,-0.4246786,0.3
6.6383634,-5.3836045,-0.42367133,0.37
6.654902,-5.3636003,-0.42366672,0.49
6.6864347,-5.3555984,-0.42566764,0.34
13.3571825,-10.611654,-1.054111,0.6
13.329957,-10.555644,-1.0500879,0.79
13.625451,-10.721679,-1.0741704,0.33
13.445031,-10.511638,-1.0540783,0.79
13.648546,-10.603658,-1.0701263,0.25
13.469117,-10.3956175,-1.0500352,0.78
13.44867,-10.313602,-1.0460025,0.21
13.496208,-10.283598,-1.0469937,0.79
15.854589,-12.048958,-1.2648154,0.28
13.412539,-10.120566,-1.0349258,0.77
13.424087,-10.064557,-1.032905,0.3
13.431628,-10.004545,-1.0308821,0.7
13.445169,-9.949535,-1.0288615,0.68
13.464712,-9.899527,-1.0278434,0.73
13.464255,-9.834514,-1.0248181,0.7
13.460031,-9.799507,-1.0238042,0.73
13.477573,-9.748499,-1.0217854,0.74
13.483116,-9.688487,-1.0197624,0.75
13.496656,-9.634477,-1.018742,0.75
13.509194,-9.579466,-1.0167212,0.75
13.51574,-9.521455,-1.014699,0.73
13.530279,-9.468445,-1.013679,0.74
13.599043,-9.485449,-1.0186892,0.77
14.905399,-10.331627,-1.1330878,0.18
13.554139,-9.329418,-1.0086257,0.53
13.567678,-9.276408,-1.0076057,0.72
13.563222,-9.211394,-1.0045799,0.72
13.618756,-9.187391,-1.0065732,0.59
13.67052,-9.191392,-1.0105773,0.68
13.845037,-9.246405,-1.0236074,0.38
13.849581,-9.187392,-1.0215844,0.35
13.852126,-9.12738,-1.0185608,0.5
13.867671,-9.07637,-1.0175413,0.32
13.849212,-9.002355,-1.0135111,0.6
13.92774,-8.991353,-1.0185102,0.3
13.996505,-9.005357,-1.0235189,0.43
14.076041,-8.995355,-1.0275185,0.37
14.290549,-9.069371,-1.0435573,0.38
14.373082,-9.059369,-1.0485568,0.32
14.408621,-9.0193615,-1.0495423,0.51
14.494154,-9.01036,-1.0545422,0.45
14.594911,-9.041367,-1.0615587,0.32
14.758432,-9.079374,-1.0735806,0.31
14.772976,-9.025364,-1.0725594,0.61
14.861509,-9.016362,-1.0775592,0.26
15.004029,-9.038367,-1.0875735,0.32
15.055571,-9.006361,-1.0895625,0.43
15.1420965,-8.993359,-1.0945604,0.36
15.325846,-9.070375,-1.1095983,0.36
15.379388,-9.038369,-1.1115873,0.45
15.473921,-9.029367,-1.117587,0.26
15.679435,-9.083379,-1.132616,0.42
15.752968,-9.060373,-1.1366092,0.41
15.830508,-9.04037,-1.1406035,0.41
16.024025,-9.084379,-1.1546279,0.34
16.108788,-9.099383,-1.1606367,0.46
16.178324,-9.072377,-1.1636279,0.37
16.296856,-9.072377,-1.1716316,0.29
16.454376,-9.092382,-1.1826446,0.43
16.570913,-9.090383,-1.1896472,0.33
16.66244,-9.072378,-1.1956425,0.0
16.725208,-9.073379,-1.1996447,0.0
6.1190205,-3.2881074,-0.3059452,0.0
6.088548,-3.2470968,-0.30292973,0.0
6.0470877,-3.201085,-0.29891187,0.0
5.9986343,-3.152073,-0.29389253,0.0
5.9641623,-3.110062,-0.28987658,0.0
5.9357,-3.072052,-0.28686243,0.0
5.919468,-3.052047,-0.2848549,0.0
5.9020014,-3.0200381,-0.28284353,0.0
5.8915386,-2.9920301,-0.28083402,0.0
5.6951046,-2.8700016,-0.26478052,0.0
5.8515964,-2.9260123,-0.2768104,0.0
5.8571415,-2.9070065,-0.27580503,0.0
5.835655,-2.872997,-0.27379286,0.0
5.8504367,-2.8699956,-0.2747931,0.0
5.8539577,-2.8489895,-0.27378693,0.0
5.8354955,-2.8179805,-0.27177596,0.0
5.8470144,-2.800975,-0.27277166,0.0
5.833558,-2.7729673,-0.27076206,0.0
5.838084,-2.7529612,-0.26975626,0.0
5.8086143,-2.7169511,-0.266743,0.0
5.8163834,-2.7099488,-0.26774147,0.0
5.8189044,-2.6889422,-0.26673526,0.0
5.841439,-2.677938,-0.26773357,0.0
5.81598,-2.6449287,-0.26572162,0.0
5.8424973,-2.6349247,-0.26672053,0.0
5.8360176,-2.6099172,-0.26571244,0.0
5.822799,-2.5939126,-0.2647066,0.0
5.847317,-2.5829084,-0.26570505,0.0
5.8398433,-2.557901,-0.2646969,0.0
5.862362,-2.5458963,-0.26569486,0.0
5.8328986,-2.5118866,-0.26268244,0.0
5.8494306,-2.4978817,-0.2636794,0.0
5.8479586,-2.475875,-0.26267257,0.0
5.8767295,-2.4778745,-0.26467517,0.0
5.875258,-2.4558675,-0.26366842,0.0
5.8807855,-2.4368615,-0.26366302,0.0
5.900316,-2.4238565,-0.2646604,0.0
5.8798394,-2.3938477,-0.26264992,0.0
5.9053607,-2.3828433,-0.26464826,0.0
5.8741326,-2.359837,-0.26163927,0.0
5.936656,-2.363836,-0.26564452,0.0
5.96518,-2.3538318,-0.2676433,0.0
5.9687057,-2.333825,-0.26763746,0.0
6.3261867,-2.2617898,-0.2906363,0.0
6.383934,-2.2707908,-0.29464224,0.0
6.5604944,-2.2647834,-0.30664957,0.0
7.111415,-2.2457614,-0.34566918,0.0
23.450336,-7.175907,-1.6059451,0.15
23.238882,-7.0318727,-1.5878811,0.26
22.742443,-6.804818,-1.547779,0.27
22.615984,-6.68979,-1.5357285,0.34
22.617525,-6.6137705,-1.5346959,0.33
22.58329,-6.5647583,-1.5316746,0.34
22.643824,-6.505743,-1.5346497,0.34
22.848352,-6.4867373,-1.5486434,0.36
22.942886,-6.435724,-1.5546223,0.26
22.898428,-6.346701,-1.5495837,0.29
22.915958,-6.2736826,-1.5495526,0.31
22.83373,-6.2126675,-1.5425256,0.45
22.84427,-6.139649,-1.5414946,0.2
21.310854,-5.6565337,-1.4232761,0.32
21.257393,-5.571512,-1.4172395,0.41
21.231926,-5.4934916,-1.4142063,0.33
21.211462,-5.417472,-1.411174,0.38
21.237997,-5.3534555,-1.4121472,0.4
21.251762,-5.321447,-1.4121338,0.45
21.310297,-5.265432,-1.4161106,0.27
21.40783,-5.218419,-1.4220915,0.55
21.875349,-5.259427,-1.4561126,0.21
22.182873,-5.259425,-1.4781148,0.4
22.17541,-5.184406,-1.4760832,0.3
22.207945,-5.1193886,-1.4780558,0.45
22.31171,-5.1063848,-1.4850512,0.36
22.43424,-5.060372,-1.4930327,0.35
22.408772,-4.980351,-1.4899987,0.38
22.661303,-4.962345,-1.5079929,0.37
22.623833,-4.879323,-1.5039575,0.24
22.601366,-4.8003025,-1.500924,0.35
22.775902,-4.7632923,-1.5129097,0.32
22.872665,-4.746287,-1.5199031,0.17
22.744202,-4.6452613,-1.5088598,0.39
17.381872,-3.4979863,-1.1043439,0.23
17.367409,-3.43897,-1.1023198,0.22
17.355938,-3.379954,-1.100296,0.28
17.344465,-3.3209379,-1.0992721,0.29
17.315004,-3.2599213,-1.0962473,0.32
17.321768,-3.232914,-1.0962365,0.34
17.304293,-3.1728973,-1.0942123,0.31
17.307825,-3.1178823,-1.0931902,0.32
17.30436,-3.0618668,-1.0931678,0.34
17.291891,-3.0038507,-1.0911444,0.33
17.30942,-2.950836,-1.0921234,0.33
17.299181,-2.9208276,-1.0911114,0.34
17.288713,-2.8638117,-1.0890886,0.34
17.293242,-2.8087966,-1.0890667,0.33
17.301775,-2.7547812,-1.0890453,0.33
17.293304,-2.6977656,-1.0880226,0.34
17.29983,-2.64275,-1.0870008,0.32
17.305365,-2.588735,-1.0869795,0.34
17.311127,-2.5617275,-1.0869689,0.35
17.328653,-2.5087123,-1.0879481,0.36
17.342178,-2.4546971,-1.0889269,0.36
17.340714,-2.3996818,-1.0879053,0.98
17.397242,-2.3516681,-1.0918868,0.89
17.366774,-2.2926517,-1.0888634,0.43
17.358538,-2.2636435,-1.087852,0.47
17.369066,-2.2096283,-1.0878309,0.41
17.454592,-2.1646152,-1.0938139,0.6
17.246128,-2.0845938,-1.0777813,0.0
17.347654,-2.041581,-1.0847652,0.0
17.373177,-1.988566,-1.0867447,0.0
17.416706,-1.9385517,-1.0897255,0.0
17.574465,-1.9275479,-1.1007222,0.0
17.946991,-1.9115417,-1.1277181,0.0
18.622507,-1.9235423,-1.1777265,0.0
19.372025,-1.9385434,-1.2327361,0.0
20.69653,-2.0035567,-1.3307678,0.0
20.925058,-1.9595438,-1.3467513,0.12
24.90377,-2.2876215,-1.6418972,0.12
24.871298,-2.2055993,-1.638864,0.16
24.84183,-2.1245778,-1.6358312,0.12
24.829361,-2.0455563,-1.6347995,0.16
24.80989,-1.9655347,-1.6327673,0.12
24.793417,-1.885513,-1.6307353,0.17
24.752949,-1.8044912,-1.6277027,0.12
24.737713,-1.7644804,-1.6256868,0.16
24.709242,-1.6844586,-1.6236548,0.12
24.701773,-1.6064374,-1.6226238,0.17
24.6723,-1.5264158,-1.620592,0.12
24.652826,-1.4473944,-1.6185607,0.16
24.644356,-1.3693731,-1.6175297,0.12
24.627888,-1.291352,-1.615499,0.16
24.617647,-1.2513411,-1.6154833,0.29
24.591179,-1.1733199,-1.6124525,0.25
24.580706,-1.0952988,-1.611422,0.26
24.579231,-1.0172774,-1.6113914,0.26
24.57776,-0.9402565,-1.6113613,0.25
24.570292,-0.8632355,-1.6103314,0.25
24.572052,-0.8242248,-1.6103163,0.25
24.575579,-0.7472038,-1.6102864,0.25
24.585106,-0.6701828,-1.6112565,0.24
24.594633,-0.5931618,-1.6112267,0.25
24.596163,-0.5161408,-1.611197,0.27
24.606684,-0.43811953,-1.6121671,0.18
24.626211,-0.3610985,-1.6131376,0.16
24.61198,-0.32308817,-1.612123,0.13
24.6205,-0.24506687,-1.6130933,0.16
24.61103,-0.16804585,-1.6120638,0.12
24.598558,-0.09102484,-1.6110345,0.15
24.58408,-0.013003549,-1.6100049,0.12
22.745,0.0,-1.624,0.17
22.754522,0.072019756,-1.624973,0.21
22.72805,0.14303926,-1.6229465,0.18
22.711576,0.21405876,-1.6209202,0.21
22.686337,0.25006863,-1.6189067,0.17
22.690866,0.32108814,-1.6198804,0.13
22.705387,0.3931079,-1.6208538,0.18
22.701914,0.46412736,-1.6208276,0.29
22.703444,0.5351469,-1.6208014,0.27
22.716967,0.6071666,-1.622775,0.26
22.73173,0.6431765,-1.6237617,0.26
22.755257,0.71519613,-1.6257354,0.26
22.76678,0.7872159,-1.6267091,0.26
22.785301,0.8602359,-1.6286825,0.27
22.807829,0.93225557,-1.6306565,0.27
22.81835,1.0052756,-1.63163,0.19
22.83888,1.0772953,-1.6336039,0.15
22.802637,1.1123049,-1.6305915,0.13
22.765162,1.1823242,-1.6275665,0.34
22.919685,1.2623457,-1.6405374,0.18
22.94521,1.3363658,-1.6435109,0.34
22.965738,1.4093858,-1.6454848,0.23
23.025263,1.4854064,-1.6504576,0.19
22.976019,1.5194159,-1.6464456,0.34
22.642546,1.5684298,-1.6204299,0.35
21.63706,1.5684323,-1.5394344,0.21
21.484583,1.6254483,-1.5284154,0.28
21.4751,1.693467,-1.5273919,0.49
21.391623,1.754484,-1.5213712,0.31
21.216145,1.8074992,-1.5073541,0.27
20.889902,1.8135017,-1.4813541,0.39
20.658428,1.8585149,-1.4633403,0.35
20.62095,1.920532,-1.4613194,0.3
20.566467,1.981549,-1.4572992,0.28
20.509995,2.0405655,-1.4532799,0.32
20.269514,2.0815778,-1.4342679,0.33
20.268032,2.1465955,-1.4342462,0.41
19.978794,2.147597,-1.4112483,0.27
19.76931,2.1886091,-1.3952366,0.26
19.963835,2.2736318,-1.4112068,0.39
19.718355,2.3086424,-1.3921977,0.3
19.78788,2.3796616,-1.3981739,0.34
19.500399,2.4076707,-1.3761675,0.34
19.405916,2.4586852,-1.3691521,0.32
19.25168,2.469689,-1.3571502,0.41
19.172195,2.5217035,-1.3511344,0.28
19.25972,2.5947235,-1.3591101,0.31
19.267246,2.6567402,-1.3600903,0.41
19.080763,2.692751,-1.3460811,0.24
19.087286,2.7547681,-1.3470616,0.36
19.225046,2.8057816,-1.3580437,0.3
19.035564,2.8397918,-1.3440356,0.42
18.859081,2.8748024,-1.330027,0.33
18.98961,2.9548235,-1.3420005,0.44
18.85313,2.9948354,-1.3309901,0.3
18.589643,3.013842,-1.3109882,0.35
18.520163,3.062856,-1.3059742,0.33
18.459923,3.0828617,-1.3009691,0.41
18.44245,3.1388772,-1.3009524,0.33
18.328962,3.179889,-1.2919419,0.37
18.330482,3.2399056,-1.2929239,0.34
18.251005,3.2849183,-1.2879119,0.25
18.248524,3.3439343,-1.2878944,0.49
18.274046,3.4079518,-1.291875,0.3
18.174807,3.4189553,-1.2838736,0.35
18.110329,3.4659686,-1.2798611,0.39
18.057848,3.5149822,-1.2758478,0.31
17.932364,3.5499928,-1.2668402,0.35
17.98188,3.6190112,-1.2718192,0.36
17.838398,3.6490202,-1.2608136,0.36
17.799923,3.699034,-1.2588003,0.41
17.560677,3.6790304,-1.2398112,0.4
17.600199,3.745048,-1.2437917,0.3
17.622719,3.808065,-1.2467735,0.27
17.493235,3.838074,-1.2367681,0.48
17.48776,3.8940892,-1.2377527,0.34
17.606276,3.9791112,-1.2487262,0.36
17.555042,3.9961162,-1.2447228,0.39
17.45756,4.032127,-1.2377154,0.3
17.400074,4.0771394,-1.2337047,0.39
17.32259,4.117151,-1.2286959,0.39
17.251116,4.157162,-1.223687,0.33
17.283628,4.2231793,-1.2276684,0.44
17.154146,4.2491875,-1.2186652,0.31
17.034908,4.2481885,-1.208669,0.29
16.984428,4.2922,-1.2056588,0.45
16.948948,4.340214,-1.2036473,0.27
16.803461,4.36022,-1.1936466,0.33
16.778984,4.4102335,-1.1926343,0.45
16.774496,4.4662485,-1.1936202,0.25
16.732256,4.483253,-1.1906172,0.37
16.596775,4.5032597,-1.1806166,0.37
16.568298,4.551273,-1.1796054,0.4
16.432816,4.5702786,-1.1686053,0.25
16.506329,4.647299,-1.1765835,0.38
16.263844,4.635298,-1.1575953,0.16
15.965362,4.605293,-1.1336136,0.56
16.157127,4.687312,-1.1505864,0.23
16.390648,4.810343,-1.1715477,0.26
16.297161,4.839351,-1.1645443,0.47
16.173681,4.8583574,-1.1555445,0.3
15.931195,4.8413553,-1.1365583,0.24
15.888714,4.8833666,-1.1345501,0.42
15.802233,4.9113746,-1.1285471,0.39
15.774992,4.93038,-1.1265439,0.39
15.751504,4.978393,-1.1265337,0.37
15.787029,5.0434093,-1.1305172,0.32
15.817545,5.108426,-1.1345011,0.41
15.797059,5.157439,-1.1344908,0.17
15.662579,5.1684427,-1.1244946,0.57
15.739097,5.248463,-1.132473,0.32
15.701849,5.2644677,-1.1294713,0.32
15.713366,5.3234825,-1.1324576,0.42
15.708881,5.3774967,-1.133446,0.25
15.7954,5.4625177,-1.1424233,0.43
15.841916,5.534536,-1.1474053,0.42
15.675442,5.5315366,-1.1344143,0.2
15.741191,5.583549,-1.1413997,0.45
15.650715,5.606556,-1.1353995,0.29
15.716226,5.6865754,-1.1423793,0.41
15.767749,5.760594,-1.148361,0.35
15.601262,5.7565947,-1.1353707,0.34
15.705775,5.8516173,-1.1463454,0.38
15.612298,5.8726234,-1.1393464,0.26
15.799056,5.9706464,-1.1563158,0.41
15.74557,6.0076566,-1.1533113,0.39
15.680087,6.039665,-1.1493087,0.34
15.717598,6.111683,-1.1542921,0.19
15.674116,6.151693,-1.1522868,0.55
15.4186325,6.108684,-1.1323105,0.21
15.744386,6.2657204,-1.1612601,0.39
15.688907,6.3007293,-1.1582566,0.34
15.6704235,6.3507423,-1.1582482,0.39
15.447937,6.318736,-1.1402684,0.27
15.571446,6.4267616,-1.1532401,0.44
15.45297,6.4347644,-1.1442465,0.3
15.355484,6.451769,-1.1382498,0.25
15.297243,6.455771,-1.1332529,0.61
15.211759,6.4767766,-1.1282549,0.35
15.334272,6.585802,-1.1402267,0.26
15.259784,6.6118093,-1.1362274,0.41
15.339305,6.702831,-1.1442056,0.37
15.386815,6.7818494,-1.1511883,0.34
15.319334,6.8098564,-1.1471883,0.34
15.206092,6.788852,-1.1382002,0.43
15.211599,6.849867,-1.1401893,0.29
15.139117,6.874873,-1.1361905,0.45
15.078635,6.9048805,-1.13219,0.32
15.053151,6.9508915,-1.1321844,0.36
14.993661,6.9818993,-1.129184,0.35
15.011182,7.0469146,-1.132172,0.48
15.095934,7.11593,-1.141154,0.33
15.000452,7.128934,-1.1341598,0.21
14.896969,7.137937,-1.1271667,0.47
14.819483,7.158942,-1.12217,0.36
14.810996,7.2129545,-1.1241624,0.36
14.784511,7.2579656,-1.1231577,0.34
14.788023,7.3179793,-1.1261483,0.29
14.741784,7.323981,-1.1231515,0.36
14.893288,7.458011,-1.1381183,0.41
14.799806,7.470014,-1.1321248,0.34
14.797324,7.5270276,-1.1341168,0.21
14.820835,7.598044,-1.1381043,0.52
14.802347,7.648055,-1.139099,0.33
14.731106,7.6410537,-1.1331066,0.38
14.786616,7.7290735,-1.1410891,0.42
14.783129,7.7870865,-1.1430814,0.25
14.644645,7.7740836,-1.1320965,0.48
14.639161,7.8300967,-1.1340896,0.42
14.733672,7.940121,-1.1450655,0.35
14.750177,8.010137,-1.1490548,0.36
14.7129345,8.020139,-1.1470573,0.32
14.69045,8.06815,-1.1470534,0.36
14.652963,8.108158,-1.1460521,0.33
14.591474,8.135165,-1.1430551,0.42
14.561989,8.179174,-1.1420529,0.45
14.5285015,8.221183,-1.1420513,0.3
14.488264,8.228185,-1.1390548,0.42
14.442777,8.263192,-1.1370556,0.39
14.409287,8.3052025,-1.1370543,0.25
14.368804,8.34221,-1.1350545,0.47
14.343317,8.388219,-1.1360523,0.36
14.312823,8.432229,-1.1350508,0.39
14.222346,8.439231,-1.1290604,0.4
14.2761,8.501244,-1.1360475,0.31
14.138614,8.481239,-1.1250657,0.34
14.141129,8.543253,-1.1280588,0.41
14.06364,8.558255,-1.1230665,0.36
14.154146,8.67428,-1.1340439,0.41
14.04466,8.669278,-1.1270577,0.37
14.071168,8.747295,-1.1320468,0.33
14.051924,8.766299,-1.1310474,0.33
14.012439,8.803307,-1.1300488,0.54
14.147942,8.950337,-1.1460178,0.19
13.915472,8.865319,-1.1260555,0.58
13.980976,8.96934,-1.1350375,0.39
13.932486,9.001347,-1.1330411,0.3
13.922999,9.057359,-1.1350374,0.46
13.957751,9.11137,-1.1400282,0.34
13.921259,9.151378,-1.1390299,0.44
13.912773,9.208389,-1.1410263,0.3
13.749289,9.164378,-1.1280522,0.43
13.713803,9.203386,-1.128054,0.41
13.730313,9.277401,-1.132046,0.37
13.727064,9.307407,-1.1330442,0.4
13.614585,9.294404,-1.1250613,0.4
13.537095,9.305406,-1.1210717,0.25
13.463615,9.317407,-1.1160816,0.5
13.376129,9.320407,-1.1110942,0.39
13.326639,9.349412,-1.1090996,0.45
13.091167,9.24739,-1.0891417,0.36
12.956929,9.184377,-1.0771661,0.34
12.906444,9.2103815,-1.0751723,0.44
12.881958,9.25439,-1.0761734,0.4
12.8734665,9.3104,-1.0781717,0.36
12.849979,9.355409,-1.0781729,0.42
12.748486,9.345406,-1.0711896,0.38
12.693004,9.366409,-1.0691975,0.27
12.661762,9.37441,-1.0672023,0.47
12.605279,9.394413,-1.0642105,0.3
12.574787,9.434421,-1.0642138,0.46
12.554297,9.481429,-1.0652151,0.39
12.53381,9.528438,-1.0662165,0.39
12.52532,9.584448,-1.0682157,0.32
12.551065,9.636457,-1.0732092,0.42
12.528584,9.681465,-1.0732113,0.4
12.510088,9.731475,-1.0752127,0.41
12.489595,9.779483,-1.0762146,0.38
12.469106,9.827491,-1.0772165,0.46
12.594606,9.989523,-1.0931889,0.21
13.223061,10.550634,-1.1600578,0.61
13.231814,10.59164,-1.163055,0.27
13.251321,10.675656,-1.1680487,0.34
13.2758255,10.764672,-1.1750417,0.42
13.334319,10.882694,-1.1840276,0.38
13.400828,11.005716,-1.1950119,0.42
13.079361,10.814677,-1.1650767,0.27
12.897887,10.734659,-1.1501127,0.38
12.923636,10.790669,-1.1541067,0.3
12.896143,10.837676,-1.1551111,0.41
12.965641,10.9657,-1.1660953,0.41
13.048138,11.105724,-1.1780767,0.39
12.9006605,11.051712,-1.1661066,0.24
13.135141,11.322763,-1.1950566,0.41
13.124651,11.385774,-1.1970577,0.29
13.118397,11.417778,-1.1990587,0.36
13.050914,11.431779,-1.1950722,0.55
13.089417,11.537797,-1.2030634,0.3
13.202911,11.710829,-1.2190388,0.37
13.029432,11.632811,-1.2050751,0.3
13.100927,11.770835,-1.2160598,0.35
13.04969,11.761831,-1.2130705,0.29
13.119182,11.899857,-1.2240555,0.27
13.113691,11.969867,-1.2280568,0.4
13.112193,12.044878,-1.2320572,0.42
13.026703,12.043876,-1.2270757,0.4
12.9252205,12.02687,-1.2200978,0.4
12.918721,12.09788,-1.2230997,0.36
12.882482,12.101879,-1.2221076,0.45
12.885984,12.181891,-1.2261077,0.35
12.834494,12.210895,-1.2251196,0.43
12.7820015,12.238896,-1.2231319,0.27
12.715515,12.252896,-1.2201473,0.52
12.632027,12.250893,-1.2151664,0.3
12.562536,12.261891,-1.2121828,0.48
12.511296,12.250888,-1.2081946,0.36
12.478809,12.295893,-1.2092031,0.37
12.342326,12.240879,-1.1982343,0.38
12.269839,12.246878,-1.1942518,0.5
12.338335,12.391901,-1.2072392,0.3
12.227848,12.360891,-1.1992651,0.45
12.152365,12.362888,-1.1942837,0.39
12.105119,12.354886,-1.1912951,0.34
12.074627,12.401892,-1.1923043,0.42
12.021138,12.425893,-1.1913185,0.38
11.9926405,12.475897,-1.1923275,0.37
11.932155,12.491898,-1.1903435,0.43
11.871668,12.507896,-1.1873597,0.5
11.86142,12.5369005,-1.1883636,0.28
11.783929,12.535896,-1.1843835,0.54
11.803427,12.635911,-1.1913828,0.31
11.795931,12.70792,-1.195388,0.4
11.740442,12.72892,-1.1934037,0.37
11.703947,12.770924,-1.1934155,0.42
11.659461,12.802926,-1.1934291,0.41
11.636211,12.818926,-1.1934361,0.4
11.619718,12.881933,-1.1954439,0.34
11.590214,12.932939,-1.1974547,0.46
11.572729,12.993945,-1.2004629,0.38
11.512237,13.009944,-1.1974807,0.43
11.441748,13.01394,-1.1945007,0.34
11.383259,13.030939,-1.1925184,0.41
11.375005,13.063943,-1.1935227,0.25
11.298521,13.059938,-1.1895443,0.6
11.270025,13.110943,-1.1915557,0.3
11.213533,13.129942,-1.1895735,0.4
11.160043,13.151941,-1.1875906,0.39
11.09556,13.159938,-1.1856103,0.37
11.030068,13.167935,-1.1826303,0.41
10.9948225,13.168933,-1.1806409,0.41
10.92334,13.167929,-1.1766623,0.36
10.862854,13.179926,-1.1746815,0.41
10.795365,13.183922,-1.1717025,0.35
10.732874,13.193919,-1.1687224,0.32
10.656388,13.185912,-1.1647456,0.45
10.588898,13.188909,-1.1617669,0.45
10.548662,13.180905,-1.1587788,0.38
10.477169,13.1789,-1.1548012,0.36
10.405685,13.174894,-1.1518236,0.4
10.336197,13.173889,-1.147846,0.25
10.26671,13.171885,-1.1448681,0.46
10.230219,13.210886,-1.1448835,0.36
10.22797,13.250891,-1.147888,0.4
10.211474,13.315896,-1.1508992,0.41
10.200972,13.389903,-1.1549097,0.45
10.187474,13.459909,-1.1589208,0.3
10.187965,13.549919,-1.1649293,0.53
10.15447,13.594921,-1.1659449,0.37
9.822046,13.243859,-1.127023,0.34
9.776809,13.226853,-1.1240368,0.23
9.665328,13.165839,-1.115069,0.62
9.682819,13.276852,-1.1230743,0.28
9.541353,13.17283,-1.1091129,0.39
9.561849,13.287843,-1.1181179,0.35
9.42838,13.192822,-1.1051549,0.5
9.535848,13.429854,-1.1261425,0.39
9.515599,13.446855,-1.1261517,0.43
9.477107,13.482855,-1.1271696,0.35
9.272656,13.285818,-1.1042212,0.32
9.219171,13.298815,-1.1032423,0.48
9.15868,13.302811,-1.1002649,0.62
9.176171,13.417823,-1.109272,0.2
9.079697,13.36881,-1.101302,0.58
9.034455,13.3488035,-1.0983166,0.25
8.97896,13.359799,-1.0963387,0.57
9.052441,13.557824,-1.1123352,0.23
8.907977,13.4368,-1.0983751,0.61
9.107415,13.825853,-1.1333475,0.25
9.111906,13.927862,-1.1403587,0.57
9.293351,14.296911,-1.1723353,0.2
9.221118,14.2369,-1.1653557,0.3
9.810439,15.233042,-1.2582542,0.21
9.749948,15.2460375,-1.2562793,0.44
9.7404375,15.338044,-1.2622949,0.4
9.700937,15.384043,-1.2643163,0.29
9.646454,15.404039,-1.2633405,0.53
9.635194,15.44204,-1.2653499,0.33
9.587705,15.474038,-1.2653731,0.37
9.547209,15.518038,-1.2663951,0.33
9.497714,15.548034,-1.266419,0.45
9.463216,15.602035,-1.2684406,0.23
9.3777275,15.575023,-1.2634717,0.43
9.310245,15.574015,-1.2604992,0.39
9.288989,15.596015,-1.261511,0.39
9.253494,15.648014,-1.2635331,0.44
9.224992,15.713016,-1.2665541,0.39
9.171495,15.737011,-1.26658,0.38
9.13,15.780009,-1.2676038,0.33
9.0735035,15.799003,-1.2666304,0.34
9.010019,15.803996,-1.2646582,0.32
8.983769,15.816994,-1.2646714,0.33
8.908283,15.801983,-1.2607017,0.43
8.892776,15.890987,-1.2657218,0.46
5.1905875,9.483106,-0.67236066,0.25
5.119112,9.427094,-0.6663849,0.42
5.0606327,9.3930855,-0.6614069,0.25
5.022149,9.394082,-0.6594255,0.34
4.9969063,9.384078,-0.6584359,0.32
4.955425,9.379073,-0.65645516,0.44
4.9079504,9.362067,-0.6534752,0.24
4.874452,9.373065,-0.65249366,0.34
4.840968,9.382062,-0.6525118,0.35
4.802489,9.381058,-0.65053064,0.29
4.7749963,9.402056,-0.65154827,0.4
4.7567577,9.403054,-0.6505575,0.36
4.7262754,9.417052,-0.6505754,0.36
4.7107863,9.460053,-0.6535913,0.35
4.6842875,9.484053,-0.65360916,0.34
4.668796,9.528053,-0.6566254,0.36
4.6543,9.575054,-0.6596416,0.27
4.6488028,9.640058,-0.6636568,0.3
4.643561,9.667059,-0.6656646,0.32
4.623063,9.704059,-0.6676823,0.42
4.6085787,9.7510605,-0.6706988,0.34
4.648058,9.911076,-0.68370897,0.26
7.5212655,15.913802,-1.217359,0.22
7.455786,15.904793,-1.2143896,0.45
7.4125414,15.880785,-1.2114066,0.46
7.397035,15.976787,-1.2174315,0.25
7.3245463,15.955775,-1.2134639,0.42
7.265063,15.958766,-1.2114942,0.45
7.284528,16.134777,-1.2255164,0.29
7.1570787,15.99075,-1.2105547,0.42
7.1605525,16.133759,-1.2215791,0.36
7.1170588,16.172752,-1.2226086,0.41
7.088812,16.17875,-1.2226242,0.25
7.0253224,16.174738,-1.2196562,0.53
6.9958167,16.246735,-1.224685,0.37
6.947322,16.27573,-1.2247157,0.36
6.856843,16.210712,-1.2177508,0.36
6.7753706,16.161697,-1.2107844,0.45
6.7641134,16.206696,-1.213799,0.28
6.7046204,16.210686,-1.2128313,0.51
6.5801744,16.05766,-1.1978682,0.36
6.5856442,16.214666,-1.2088956,0.33
6.5621395,16.301664,-1.2149252,0.41
6.5146375,16.33466,-1.2159574,0.33
6.463146,16.35565,-1.2159895,0.46
6.4389005,16.369646,-1.2160054,0.37
6.3674192,16.341633,-1.2120391,0.29
6.272954,16.254614,-1.2030739,0.42
6.222456,16.278605,-1.2031066,0.31
6.155976,16.259592,-1.2001399,0.48
6.072501,16.197575,-1.1931741,0.34
5.986021,16.128557,-1.1852088,0.43
5.989757,16.21456,-1.1922241,0.38
5.929271,16.209549,-1.1902574,0.35
5.8527956,16.161533,-1.1842911,0.45
5.7893147,16.14652,-1.1813244,0.36
5.741815,16.176512,-1.1823579,0.44
5.6683326,16.135498,-1.1773919,0.23
5.5638795,16.005474,-1.1644256,0.52
5.5866027,16.147484,-1.1764419,0.32
5.5261164,16.13947,-1.1734756,0.39
5.470626,16.14546,-1.1725096,0.41
5.4171324,16.15745,-1.1725436,0.32
5.3296676,16.06943,-1.163577,0.44
5.274182,16.07242,-1.1626107,0.41
5.2196913,16.079409,-1.1616448,0.4
5.148472,15.9543915,-1.1506611,0.38
5.102982,15.984384,-1.1516949,0.42
5.050488,15.996373,-1.1507294,0.43
5.0239763,16.087368,-1.157765,0.36
4.9555016,16.048353,-1.1527985,0.4
4.9140005,16.094345,-1.1558341,0.38
4.8435187,16.050331,-1.149868,0.34
4.816275,16.052324,-1.1498853,0.39
4.7388115,15.980308,-1.1429178,0.42
4.664336,15.919291,-1.1359509,0.3
4.6158395,15.942281,-1.1369865,0.5
4.542366,15.881264,-1.1300194,0.21
4.5188546,15.985261,-1.1380572,0.4
4.4766183,15.937251,-1.1330734,0.47
4.411147,15.898236,-1.1291065,0.34
4.366641,15.936227,-1.1311435,0.45
4.332142,16.004221,-1.1351808,0.4
4.2646623,15.960205,-1.1302147,0.37
4.232159,16.037199,-1.1362529,0.22
4.182663,16.057188,-1.1362896,0.5
4.1454253,16.022179,-1.1333061,0.37
4.1199117,16.128174,-1.1403468,0.48
4.0644174,16.12816,-1.1393832,0.27
3.9609804,15.942135,-1.1234096,0.5
3.9444518,16.087132,-1.1344534,0.34
3.8669922,15.995114,-1.1254842,0.39
3.8244958,16.039104,-1.1285228,0.39
3.7872555,16.001095,-1.124539,0.35
3.732774,15.996083,-1.1225747,0.46
3.677283,15.99107,-1.121611,0.36
3.6227973,15.987056,-1.1206472,0.33
3.551329,15.912039,-1.1126788,0.5
3.505837,15.9430275,-1.1147171,0.24
3.4773147,16.052021,-1.1227618,0.56
3.4790416,16.174023,-1.1327889,0.0
0.99423224,5.424364,-0.24602422,0.0
3.3450966,16.05699,-1.1208547,0.15
3.2646372,15.935968,-1.1098827,0.13
3.2221386,15.982958,-1.1129235,0.25
3.1726403,16.001945,-1.1139627,0.38
3.146117,16.127937,-1.1230109,0.34
3.1228762,16.140932,-1.1240305,0.21
3.0484123,16.039913,-1.1150596,0.5
3.008905,16.106903,-1.1201036,0.36
2.9574187,16.11289,-1.1191419,0.29
2.8839633,16.00687,-1.1101698,0.45
2.862425,16.170866,-1.1222239,0.0
2.8089373,16.16885,-1.1212622,0.0
0.78046215,5.4503293,-0.24520962,0.07
0.76896703,5.488328,-0.24822925,0.12
0.7464838,5.466324,-0.24624282,0.13
2.6242218,16.175802,-1.1193988,0.12
2.5907097,16.282793,-1.1274488,0.25
2.50727,16.10677,-1.1124687,0.22
2.4647648,16.16676,-1.1175146,0.31
2.4415128,16.18675,-1.1185367,0.48
2.3750553,16.098734,-1.1105653,0.34
2.321571,16.09072,-1.1096035,0.38
2.2571006,16.015701,-1.1026342,0.28
2.2106035,16.050688,-1.1046777,0.49
2.1790776,16.186678,-1.1157341,0.17
2.1445537,16.308666,-1.1247896,0.49
2.1272879,16.373661,-1.1298183,0.25
2.0618286,16.283644,-1.1218468,0.53
2.01632,16.33863,-1.1258948,0.37
1.9608362,16.319614,-1.123933,0.41
1.9223145,16.427603,-1.1319886,0.3
1.8708282,16.435587,-1.1320305,0.34
1.8136544,16.195574,-1.1120174,0.28
1.7861122,16.390562,-1.1280856,0.37
1.7316247,16.378548,-1.1261253,0.32
1.6861168,16.44053,-1.131176,0.31
1.6316323,16.426516,-1.1292156,0.27
1.5861323,16.4855,-1.1332656,0.41
1.5266563,16.429483,-1.1282994,0.41
1.503406,16.456476,-1.1303244,0.25
1.4409422,16.366459,-1.1233524,0.38
1.3954414,16.428444,-1.1274039,0.29
1.3469299,16.47943,-1.1314551,0.34
1.285474,16.383411,-1.1234814,0.38
1.2429557,16.489397,-1.1315414,0.45
1.186483,16.44438,-1.1275764,0.25
1.1712025,16.569372,-1.1376189,0.29
1.115712,16.549355,-1.1356593,0.25
1.0552586,16.448338,-1.1266843,0.42
0.995797,16.35932,-1.1197118,0.25
0.94531083,16.373302,-1.1207567,0.39
0.90177584,16.505287,-1.1308246,0.41
0.84829617,16.48727,-1.1288644,0.41
0.82403666,16.524261,-1.1318935,0.23
0.7715481,16.526243,-1.1319377,0.44
0.71906024,16.527225,-1.1319818,0.38
0.6655814,16.506208,-1.1300216,0.22
0.62005657,16.632193,-1.1400902,0.58
0.56656206,16.633175,-1.1401355,0.14
0.50911146,16.526157,-1.1311585,0.0
0.0010135422,5.776165,-0.2650026,0.0
0.4254106,16.417131,-1.1222032,0.0
-0.036962222,5.774155,-0.26503894,0.0
-0.05542943,5.766151,-0.26405498,0.06
0.26993704,16.447077,-1.1243436,0.0
-0.09438927,5.7191415,-0.26108167,0.0
-0.111870505,5.748137,-0.2631059,0.0
-0.12211741,5.726135,-0.26111066,0.0
-0.14059293,5.72013,-0.26112744,0.0
-0.15808897,5.7781243,-0.26515877,0.0
-0.17654356,5.74312,-0.26216865,0.0
-0.19701444,5.6291165,-0.2531616,0.0
-0.21549793,5.6171126,-0.25217724,0.0
-0.23295213,5.594108,-0.25018927,0.0
-0.24219339,5.5801063,-0.24919523,0.05
-0.26069686,5.6231003,-0.25322413,0.0
-0.27815416,5.5910964,-0.2502342,0.12
-0.3559217,16.473856,-1.1268985,0.14
-0.40841296,16.477837,-1.1269464,0.31
-0.45884678,16.311823,-1.113952,0.27
-0.51135874,16.4008,-1.1210204,0.37
-0.5376034,16.391792,-1.1200418,0.35
-0.5880675,16.329775,-1.1150727,0.36
-0.63853633,16.282755,-1.1121073,0.27
-0.6890093,16.240738,-1.1081432,0.35
-0.7384724,16.163721,-1.1021701,0.41
-0.7940032,16.283699,-1.1122493,0.29
-0.8172208,16.197691,-1.1052502,0.36
-0.8727451,16.316668,-1.1153293,0.39
-0.9222125,16.266651,-1.111363,0.32
-0.9726914,16.226631,-1.1084002,0.41
-1.0261911,16.28461,-1.1134634,0.36
-1.0766714,16.247591,-1.1105015,0.36
-1.1291633,16.26757,-1.112555,0.29
-1.141323,16.004572,-1.0915049,0.38
-1.1998547,16.139545,-1.1025912,0.28
-1.252347,16.164524,-1.1046463,0.43
-1.3108741,16.2665,-1.1137251,0.25
-1.3583369,16.211483,-1.108757,0.33
-1.4088187,16.193464,-1.1078005,0.5
-1.4673395,16.283438,-1.1158768,0.3
-1.502625,16.412422,-1.1259402,0.44
-1.5591316,16.462397,-1.1310055,0.35
-1.6146328,16.496374,-1.1340662,0.36
-1.6630999,16.453354,-1.1311027,0.36
-1.7095644,16.381338,-1.1251307,0.3
-1.7660673,16.428314,-1.1291957,0.27
-1.8175488,16.420294,-1.1292435,0.48
-1.8578453,16.564274,-1.1413153,0.38
-1.9053153,16.503256,-1.1373473,0.4
-1.9909148,16.827213,-1.1635042,0.0
-0.71148986,4.101021,-0.13336582,0.0
-0.7239503,4.096018,-0.13237923,0.0
-0.7374437,4.0920143,-0.13239409,0.0
-0.7509257,4.0910106,-0.13240957,0.0
-0.7561379,4.0840096,-0.13241424,0.0
-0.76961625,4.084006,-0.13242997,0.0
-0.78511137,4.097001,-0.13345072,0.0
-0.7985786,4.098997,-0.13346688,0.0
-2.5379791,16.669987,-1.1570064,0.19
-2.566227,16.678974,-1.1580365,0.3
-2.6277313,16.735947,-1.1631105,0.31
-2.6752024,16.688925,-1.1601475,0.47
-2.7066348,16.533916,-1.1481448,0.16
-2.3491342,13.789128,-0.9251795,0.29
-2.3876083,13.745113,-0.9222092,0.43
-2.431093,13.736095,-0.92125165,0.31
-2.4453144,13.6860895,-0.91825545,0.53
-2.4918027,13.69907,-0.919306,0.32
-2.5372968,13.69905,-0.9203528,0.43
-2.5817778,13.70003,-0.9213989,0.45
-2.6332772,13.740007,-0.92446077,0.25
-2.6837733,13.771984,-0.92851996,0.61
-3.3094504,17.053638,-1.1978705,0.26
-3.3477178,17.10962,-1.2029219,0.24
-3.3931794,17.0556,-1.198957,0.21
-3.376526,16.660614,-1.167855,0.58
-3.4720924,16.878567,-1.1860005,0.2
-3.6117442,17.316494,-1.2232383,0.27
-3.6792521,17.370462,-1.2283198,0.24
-3.6076913,16.58251,-1.1650784,0.58
-3.7573466,17.054432,-1.2043343,0.23
-3.9060054,17.498354,-1.242583,0.18
-3.9935458,17.64031,-1.2547044,0.38
-4.126161,17.991241,-1.2849168,0.32
-4.172626,17.93022,-1.2809528,0.27
-4.156795,17.718231,-1.2638919,0.0
-4.3084407,18.138151,-1.300139,0.0
-1.789809,6.646549,-0.3511015,0.0
-1.8022866,6.600546,-0.34710732,0.0
-1.8117372,6.547544,-0.34310845,0.0
-1.8312261,6.533537,-0.3421284,0.0
-1.8496885,6.5205293,-0.3421474,0.0
-1.8509259,6.477531,-0.33814105,0.0
-1.871397,6.4725223,-0.33816394,0.0
-1.88688,6.4435163,-0.33717677,0.0
-1.9143572,6.4675045,-0.3392131,0.0
-1.9378519,6.4704943,-0.34024107,0.0
-1.9503111,6.4344907,-0.3372493,0.0
-1.9697828,6.4254827,-0.3372706,0.0
-1.977021,6.41048,-0.33627647,0.0
-2.0075219,6.4404664,-0.33931753,0.0
-2.0339909,6.4594545,-0.341352,0.0
-2.0514848,6.438448,-0.33936903,0.0
-2.0829675,6.473433,-0.3434122,0.0
-2.1094449,6.489421,-0.34544623,0.0
-2.1839902,6.6733828,-0.36056548,0.0
-2.2342727,6.8103566,-0.37264806,0.0
-2.262758,6.8273435,-0.37468454,0.0
-2.279236,6.8013372,-0.37269968,0.0
-2.298709,6.7873287,-0.37272042,0.0
-2.3171747,6.771321,-0.37173966,0.0
-2.3466637,6.7903075,-0.37377787,0.0
-2.364144,6.7683,-0.37279508,0.0
-2.3823843,6.7902913,-0.37482038,0.0
-2.4078622,6.7962794,-0.37585178,0.0
-2.4363577,6.8092666,-0.37688792,0.0
-2.4708378,6.8442497,-0.3809348,0.0
-7.4933233,22.515486,-1.7104512,0.0
-7.584827,22.557436,-1.7155604,0.0
-2.3711061,6.315312,-0.33773178,0.0
-2.3743355,6.291311,-0.33573204,0.0
-2.3878129,6.2633057,-0.3347442,0.0
-2.397284,6.224303,-0.33174986,0.0
-2.425772,6.242289,-0.33378732,0.0
-2.439236,6.217284,-0.33180007,0.0
-2.444693,6.169283,-0.32879975,0.0
-2.4752007,6.1902685,-0.3308402,0.0
-2.48442,6.187264,-0.3308511,0.0
-2.495899,6.15526,-0.32886064,0.0
-2.5233722,6.1712465,-0.33089674,0.0
-2.552878,6.1882324,-0.33293554,0.09
-2.5693483,6.172225,-0.33195364,0.0
-2.5908203,6.170215,-0.33297992,0.0
-2.6123002,6.167205,-0.33300608,0.0
-2.614522,6.1442046,-0.3320057,0.0
-2.6450093,6.1651897,-0.33404642,0.0
-2.6724901,6.1781764,-0.33608234,0.0
-2.703999,6.1981606,-0.3381242,0.0
-9.081305,22.372614,-1.7432142,0.22
-9.10273,22.220602,-1.7332128,0.26
-9.082909,22.069613,-1.7211643,0.39
-9.1013365,21.911602,-1.7101587,0.32
-9.116757,21.75159,-1.6981496,0.28
-9.1542015,21.64757,-1.6921753,0.27
-9.244704,21.671518,-1.6962839,0.32
-9.291157,21.59149,-1.6923245,0.37
-9.251527,21.305513,-1.6692314,0.22
-9.0165,20.652643,-1.6128511,0.51
-9.0999975,20.666595,-1.6169508,0.2
-9.220524,20.769527,-1.628108,0.38
-9.116839,20.347584,-1.593919,0.28
-9.263392,20.5095,-1.6111165,0.34
-9.283828,20.379486,-1.6021198,0.28
-9.158123,19.922558,-1.5639001,0.29
-8.989173,19.457651,-1.5246284,0.3
-8.995597,19.307646,-1.5136127,0.31
-9.014034,19.185633,-1.5046155,0.45
-9.0164585,19.029633,-1.4935946,0.26
-9.07493,18.998596,-1.4936593,0.4
-9.113382,18.925573,-1.4896938,0.18
-9.009711,18.54763,-1.4585137,0.57
-9.063973,18.5866,-1.4625843,0.26
-9.053386,18.412603,-1.4495459,0.33
-9.027788,18.208614,-1.4344853,0.25
-8.97016,17.942646,-1.4123775,0.35
-9.206788,18.28651,-1.446711,0.46
-9.12114,17.964558,-1.4195619,0.21
-9.282491,18.221464,-1.4447925,0.41
-9.186839,17.881517,-1.416629,0.27
-9.014112,17.395613,-1.3753523,0.35
-9.052574,17.334589,-1.3723903,0.37
-9.232151,17.553484,-1.3946377,0.48
-9.217568,17.387491,-1.3815973,0.32
-9.117911,17.059546,-1.3544316,0.26
-9.066088,16.891575,-1.340346,0.39
-9.129568,16.883535,-1.3424221,0.27
-9.169028,16.829512,-1.3404629,0.32
-9.054362,16.484575,-1.3112775,0.4
-9.021772,16.29659,-1.296213,0.38
-9.10427,16.326542,-1.3023179,0.27
-9.023641,16.053585,-1.2791841,0.29
-9.004058,15.896594,-1.26714,0.49
-9.064321,15.947559,-1.2732205,0.28
-9.003701,15.719591,-1.2551174,0.37
-9.010141,15.6135845,-1.2481122,0.38
-9.053609,15.575558,-1.2471611,0.43
-9.06005,15.471552,-1.2401565,0.23
-9.030461,15.305567,-1.2270999,0.46
-9.041686,15.269558,-1.2251096,0.39
-9.103169,15.26452,-1.2271851,0.39
-9.061573,15.081542,-1.2121121,0.4
-9.058011,14.964542,-1.2040939,0.37
-9.058444,14.857539,-1.1970823,0.34
-9.099916,14.819512,-1.1961297,0.31
-9.016292,14.572558,-1.1749973,0.39
-9.026521,14.536551,-1.1730062,0.39
-9.020954,14.423552,-1.1649867,0.37
-8.99337,14.275565,-1.153936,0.38
-9.052852,14.271527,-1.1560103,0.3
-8.978238,14.048569,-1.1378926,0.45
-9.0527315,14.069523,-1.1419886,0.31
-8.990129,13.869556,-1.1258888,0.36
-8.969334,13.787568,-1.1198542,0.43
-8.978779,13.706559,-1.1138577,0.31
-8.976222,13.605558,-1.1068444,0.44
-8.972658,13.505557,-1.1008298,0.35
-8.948088,13.37257,-1.0897857,0.39
-8.983549,13.335546,-1.0888271,0.32
-9.000002,13.268533,-1.0858417,0.48
-8.976206,13.186545,-1.0788035,0.34
-9.0316925,13.17851,-1.0808735,0.43
-9.086164,13.171475,-1.0829422,0.23
-8.989543,12.936529,-1.0627974,0.45
-9.012002,12.881514,-1.0598211,0.31
-9.079489,12.893471,-1.0639086,0.4
-9.047916,12.758486,-1.0538563,0.27
-8.936061,12.552551,-1.0346949,0.47
-9.080603,12.676462,-1.0498911,0.34
-8.980982,12.447518,-1.0297437,0.25
-8.965414,12.341525,-1.0217149,0.39
-9.0198965,12.335489,-1.0237845,0.41
-9.097389,12.36244,-1.0298866,0.34
-9.010783,12.157489,-1.0117586,0.23
-8.971981,12.0625105,-1.003701,0.52
-9.05448,12.096458,-1.0098103,0.33
-9.046915,12.00646,-1.0037937,0.31
-8.956309,11.801512,-0.9856609,0.45
-8.98877,11.768489,-0.9857006,0.33
-8.93419,11.615519,-0.97261864,0.42
-8.949423,11.597507,-0.9726372,0.33
-9.02391,11.621459,-0.97773576,0.4
-8.969329,11.47149,-0.9656543,0.35
-8.958767,11.382492,-0.95863456,0.48
-9.043266,11.418438,-0.9657472,0.27
-9.011694,11.302454,-0.95669836,0.51
-9.067175,11.300418,-0.9587708,0.36
-9.149443,11.370365,-0.9678828,0.27
-8.929767,11.013496,-0.93357307,0.39
-8.8972,10.899512,-0.92552346,0.37
-8.925659,10.865493,-0.9245588,0.31
-8.930117,10.799487,-0.92056084,0.44
-8.952573,10.758471,-0.91858804,0.39
-8.936016,10.667477,-0.91256124,0.38
-8.930239,10.625479,-0.9095513,0.31
-8.905682,10.525491,-0.90151364,0.5
-8.984169,10.554439,-0.9076187,0.34
-8.945596,10.43946,-0.8985619,0.39
-8.944043,10.370457,-0.8945564,0.35
-8.968505,10.333439,-0.893587,0.38
-9.036994,10.348393,-0.8976784,0.43
-8.957402,10.18744,-0.88356555,0.31
-8.94362,10.138447,-0.87954503,0.48
-8.994099,10.132411,-0.8826117,0.32
-8.957526,10.025432,-0.87355864,0.27
-8.980997,9.987413,-0.8725882,0.5
-9.058483,10.013362,-0.8786923,0.3
-9.041926,9.930368,-0.872667,0.36
-8.977345,9.793406,-0.86057585,0.42
-9.019597,9.809378,-0.8636327,0.32
-8.999032,9.724387,-0.85760224,0.25
-8.950464,9.607414,-0.8475334,0.53
-9.054962,9.663345,-0.85667485,0.32
-9.056407,9.604341,-0.8536748,0.36
-9.022851,9.505359,-0.8456269,0.41
-9.107119,9.567305,-0.8537415,0.36
-9.045541,9.43934,-0.84265536,0.34
-9.048993,9.383334,-0.8396584,0.22
-9.075458,9.352313,-0.839693,0.46
-9.000873,9.213357,-0.82758945,0.28
-9.082366,9.2413025,-0.8336995,0.53
-9.081824,9.181299,-0.82969743,0.25
-8.984996,9.051359,-0.8165643,0.5
-9.067488,9.080302,-0.822676,0.31
-9.054937,9.009307,-0.81865764,0.34
-9.118415,9.018264,-0.82274336,0.36
-9.117871,8.96026,-0.81874156,0.41
-9.044283,8.829304,-0.80764014,0.34
-9.090758,8.820271,-0.80970275,0.34
-9.086994,8.7872715,-0.8076972,0.29
-9.09545,8.740263,-0.804708,0.37
-9.117913,8.707245,-0.8047379,0.29
-8.999309,8.5353155,-0.7875756,0.37
-9.030776,8.512292,-0.78861797,0.32
-9.037236,8.464286,-0.7856264,0.4
-9.039688,8.41328,-0.7836293,0.36
-8.985893,8.334312,-0.77555585,0.41
-9.019357,8.314287,-0.7766012,0.3
-9.006808,8.249292,-0.7725839,0.51
-9.003263,8.193291,-0.76857895,0.33
-9.02973,8.16627,-0.7686149,0.36
-9.058196,8.141249,-0.76965356,0.26
-8.986615,8.023291,-0.7585563,0.31
-8.967844,7.979301,-0.7545308,0.48
-9.07934,8.032226,-0.7646825,0.26
-8.972751,7.883291,-0.7495378,0.4
-8.988213,7.847277,-0.7485591,0.42
-9.036688,7.841242,-0.75162524,0.28
-9.030133,7.786243,-0.74761665,0.4
-9.010577,7.7192516,-0.74359053,0.29
-9.061828,7.7402167,-0.74766034,0.39
-9.0132675,7.6472445,-0.739595,0.3
-9.019725,7.6042366,-0.73760426,0.34
-9.017181,7.553235,-0.73460144,0.33
-9.034643,7.52022,-0.7336257,0.33
-9.054112,7.488203,-0.73365283,0.36
-9.148361,7.5471396,-0.742781,0.24
-9.001768,7.3722315,-0.724583,0.4
-9.059253,7.3731904,-0.7276618,0.31
-9.070706,7.3361797,-0.7266782,0.29
-9.056163,7.2761855,-0.7226594,0.39
-9.057612,7.2311807,-0.7206623,0.34
-9.053063,7.1811795,-0.71765715,0.25
-9.027277,7.1371946,-0.71362275,0.42
-9.061758,7.118169,-0.71467054,0.32
-9.032202,7.048184,-0.7096316,0.35
-9.061663,7.0271616,-0.7096727,0.33
-9.039112,6.963172,-0.70564336,0.33
-9.043574,6.9211655,-0.7036507,0.33
-9.097046,6.919126,-0.7067243,0.35
-9.331581,7.059967,-0.7290429,0.0
-4.906436,3.5449035,-0.26905936,0.0
-4.9279184,3.5378885,-0.2700907,0.0
-4.900383,3.492906,-0.26605573,0.0
-9.119558,6.6920905,-0.6967625,0.17
-9.089011,6.624107,-0.69172275,0.31
-9.077228,6.594113,-0.68970764,0.33
-9.153705,6.609058,-0.69481254,0.36
-9.208183,6.606018,-0.69788784,0.26
-9.290666,6.623958,-0.7050009,0.34
-9.26311,6.5599732,-0.69996536,0.28
-9.279569,6.5289583,-0.6989893,0.25
-9.309048,6.5059342,-0.70003086,0.38
-9.390298,6.5438776,-0.70714146,0.39
-9.281716,6.421947,-0.6939966,0.28
-9.3751955,6.44688,-0.7021246,0.26
-9.439673,6.449832,-0.70621353,0.4
-9.454135,6.416818,-0.70523494,0.27
-9.42858,6.355831,-0.70120233,0.33
-9.422042,6.3078313,-0.6981955,0.35
-9.423266,6.2878284,-0.6971981,0.3
-9.456731,6.2688017,-0.6982453,0.27
-9.459189,6.227796,-0.69725055,0.36
-9.454652,6.181795,-0.69424653,0.35
-9.542128,6.1997313,-0.7013666,0.32
-9.556582,6.1677175,-0.7003882,0.32
-9.50002,6.087752,-0.69331396,0.34
-9.611287,6.140673,-0.70346516,0.31
-9.640746,6.118649,-0.70450705,0.3
-9.627197,6.067654,-0.70149094,0.26
-9.584643,5.9976788,-0.69543576,0.43
-9.686125,6.0226054,-0.7025748,0.26
-9.548556,5.890695,-0.68739164,0.25
-9.570777,5.8856773,-0.6894227,0.42
-9.63025,5.8826323,-0.69350517,0.28
-9.628704,5.840629,-0.69150543,0.36
-9.617155,5.7926326,-0.6884922,0.29
-9.590612,5.734647,-0.6834588,0.29
-9.665088,5.740591,-0.68956167,0.35
-9.656543,5.6945925,-0.6865525,0.36
-9.661772,5.677587,-0.6865608,0.25
-9.69723,5.6595583,-0.687611,0.42
-9.684684,5.6115623,-0.6855966,0.19
-9.742162,5.6055183,-0.68867654,0.43
-9.715609,5.549532,-0.6846433,0.21
-9.764076,5.538494,-0.6877111,0.29
-12.7663,7.269398,-0.9697591,0.27
-12.839541,7.286344,-0.9758589,0.32
-12.928014,7.285275,-0.9819806,0.39
-13.005482,7.277214,-0.9870874,0.3
-13.100954,7.2791405,-0.99421847,0.35
-13.195425,7.280068,-1.0003483,0.31
-13.280894,7.2750006,-1.0064659,0.38
-13.363363,7.2679358,-1.0115795,0.3
-13.445609,7.2868743,-1.0186917,0.33
-13.537079,7.2838025,-1.0248173,0.37
-13.635553,7.2837257,-1.0319526,0.31
-13.72702,7.279654,-1.0380784,0.32
-13.818492,7.274582,-1.0442042,0.32
-13.925959,7.278498,-1.0523516,0.38
-14.011206,7.296434,-1.0594678,0.31
-14.112676,7.295355,-1.066607,0.37
-14.208147,7.2902794,-1.0727384,0.29
-14.308611,7.2882004,-1.0798763,0.32
-14.40808,7.2841215,-1.0870131,0.29
-14.5325575,7.2920256,-1.0961834,0.46
-14.641029,7.2909393,-1.1043323,0.27
-14.726266,7.3068748,-1.1114484,0.23
-14.828736,7.3017936,-1.1185892,0.34
-14.921198,7.2917194,-1.1247165,0.29
-15.065675,7.3066077,-1.135914,0.43
-10.373135,4.9199505,-0.7075973,0.21
-10.453612,4.919888,-0.7127086,0.24
-10.51207,4.909841,-0.7167902,0.48
-10.487527,4.8578534,-0.71276015,0.25
-10.5187645,4.852828,-0.71580374,0.38
-10.554223,4.830798,-0.7168544,0.29
-10.619687,4.822746,-0.7219455,0.39
-10.642148,4.793724,-0.7219787,0.29
-10.632602,4.749726,-0.7199689,0.34
-10.567037,4.680768,-0.71288353,0.4
-10.699516,4.702667,-0.7230649,0.32
-10.697737,4.682666,-0.723064,0.3
-10.662192,4.626686,-0.7180192,0.31
-10.758657,4.6316113,-0.72515213,0.35
-10.956147,4.6804624,-0.74142104,0.34
-10.845583,4.5915375,-0.7302753,0.32
-10.868046,4.5615153,-0.7313086,0.3
-10.91728,4.5634766,-0.7353764,0.36
-11.116768,4.6103263,-0.7516481,0.39
-11.098218,4.562334,-0.7486262,0.39
-11.087665,4.5183363,-0.746615,0.21
-10.985102,4.4354057,-0.73547995,0.38
-10.971554,4.3904095,-0.73346484,0.34
-10.87,4.3084784,-0.7233312,0.25
-11.1562605,4.4082665,-0.74771816,0.35
-11.093713,4.3423066,-0.74063706,0.33
-11.050147,4.2863326,-0.73658144,0.37
-11.2876425,4.3421526,-0.7559044,0.23
-11.146072,4.246251,-0.7417168,0.34
-11.245542,4.246172,-0.7498539,0.38
-11.270774,4.2361507,-0.7508894,0.34
-11.442244,4.2640185,-0.76512337,0.3
-11.487708,4.240979,-0.7681878,0.42
-11.546161,4.22393,-0.7722696,0.29
-11.701642,4.241809,-0.7844821,0.34
-11.837105,4.252702,-0.7946676,0.36
-11.917565,4.2416368,-0.8007791,0.39
-12.176829,4.3164415,-0.8221297,0.29
-12.109273,4.249485,-0.81504196,0.36
-12.326754,4.286317,-0.83333796,0.39
-12.344205,4.250297,-0.8333646,0.41
-12.318646,4.1993093,-0.83033323,0.29
-12.6371355,4.2690654,-0.8567653,0.41
-12.641589,4.2270555,-0.85577446,0.37
-12.770834,4.249955,-0.8659501,0.32
-12.886287,4.2468624,-0.87510866,0.38
-12.988749,4.2377787,-0.8822497,0.4
-13.121216,4.2376714,-0.8934313,0.3
-13.250676,4.2365675,-0.90260875,0.41
-13.391145,4.2374544,-0.913801,0.39
-13.564614,4.2483172,-0.9270378,0.32
-13.640835,4.251256,-0.9331419,0.36
-13.831304,4.266105,-0.9484015,0.41
-13.961773,4.259999,-0.9585804,0.38
-14.218242,4.293797,-0.9799289,0.3
-14.346693,4.286692,-0.9891049,0.35
-14.51116,4.2885594,-1.0023296,0.32
-14.626622,4.2744637,-1.0104882,0.41
-14.791855,4.300334,-1.0247122,0.39
-14.887311,4.2792535,-1.0308439,0.32
-15.117772,4.2980704,-1.0491573,0.43
-15.300231,4.3009224,-1.064406,0.33
-15.440695,4.2898064,-1.0745983,0.41
-15.590146,4.2816834,-1.0858027,0.41
-15.83461,4.298488,-1.1061349,0.21
-15.938832,4.302404,-1.1142768,0.6
-16.32231,4.3551016,-1.1457962,0.0
-12.029336,3.0533557,-0.78002405,0.0
-11.928776,2.9884264,-0.7698916,0.0
-11.937233,2.9514134,-0.76990604,0.0
-11.957458,2.9373944,-0.7719348,0.0
-11.931905,2.8924077,-0.7689034,0.0
-11.938358,2.8553965,-0.767915,0.0
-11.947807,2.8193827,-0.7679307,0.0
-11.94725,2.7813766,-0.7679329,0.0
-11.971708,2.7483513,-0.76896876,0.0
-12.02316,2.7223053,-0.77204096,0.0
-12.067833,2.6752605,-0.7751055,0.0
-12.862761,2.7776318,-0.8401816,0.0
-12.131192,2.5731914,-0.7781995,0.0
-12.152632,2.5401685,-0.77923113,0.0
-12.171086,2.5051475,-0.78025883,0.0
-12.91633,2.6455646,-0.8422637,0.0
-12.943789,2.609536,-0.84330356,0.0
-12.919231,2.5635476,-0.8412732,0.0
-12.916676,2.5225422,-0.84027255,0.0
-12.891123,2.4765549,-0.8372409,0.0
-12.878578,2.4325576,-0.83522683,0.0
-14.745059,2.7550898,-0.9897424,0.0
-14.80228,2.743041,-0.9938207,0.0
-14.807725,2.6970277,-0.99383074,0.0
-14.810164,2.6510167,-0.99383664,0.0
-14.819608,2.6060004,-0.99385196,0.0
-14.828049,2.5609848,-0.9938659,0.0
-14.806497,2.509993,-0.9908395,0.0
-14.800716,2.4859931,-0.98983294,0.0
-14.786158,2.4369957,-0.9888159,0.0
-14.799599,2.3929763,-0.9888365,0.0
-14.800049,2.345967,-0.9878396,0.0
-12.975495,2.0044007,-0.83638626,0.0
-12.97694,1.9643918,-0.83639073,0.0
-12.983394,1.9243792,-0.83640194,0.0
-12.976615,1.903381,-0.8353941,0.0
-12.939061,1.8574032,-0.832346,0.0
-12.837508,1.8024765,-0.8232118,0.0
-12.117424,1.6210352,-0.7622477,0.0
-12.855516,1.6264294,-0.8222468,0.0
-12.835972,1.5834376,-0.8202229,0.0
-12.880419,1.5493947,-0.823285,0.0
-13.207843,1.5511255,-0.8497277,0.0
-13.411291,1.5339547,-0.86600375,0.06
-13.820157,1.4986106,-0.89955807,0.17
-16.762144,1.7042228,-1.1395202,0.76
-16.76958,1.6532063,-1.139532,0.17
-16.996016,1.6230128,-1.1578383,0.58
-16.759459,1.5481933,-1.137522,0.2
-16.86589,1.5060961,-1.1466669,0.0
-17.231089,1.5137957,-1.1761588,0.0
-17.691504,1.5014125,-1.2127795,0.0
-18.363903,1.5038562,-1.267685,0.0
-26.56633,2.039174,-1.9387147,0.33
-26.871727,1.9799072,-1.963126,0.21
-26.85414,1.8949025,-1.9611028,0.21
-26.805346,1.8499327,-1.9570374,0.17
-26.757757,1.763953,-1.9519739,0.32
-26.72817,1.6789577,-1.9499346,0.2
-26.64059,1.5900104,-1.9418172,0.18
-26.612003,1.5060152,-1.938779,0.21
-26.565418,1.4210345,-1.9347167,0.2
-26.537624,1.3780475,-1.9326794,0.23
-26.544037,1.2960235,-1.9326882,0.18
-26.481453,1.2110564,-1.9266042,0.35
-26.459867,1.1280552,-1.9245751,0.19
-26.441275,1.0460516,-1.92355,0.24
-26.420689,0.9630497,-1.9215223,0.21
-26.434097,0.88201994,-1.92254,0.23
-26.484299,0.84296966,-1.9256073,0.18
-26.424717,0.75899994,-1.920527,0.23
