X,Y,Z,Intensity
-8.004259,-9.32816,-0.67074555,0.38
-7.955736,-9.332129,-0.6687013,0.38
-7.9012256,-9.330094,-0.6666496,0.38
-7.8487067,-9.329062,-0.6636001,0.33
-7.796183,-9.327028,-0.66155016,0.41
-7.758432,-9.313006,-0.65851057,0.34
-7.7089148,-9.314976,-0.6564647,0.39
-7.6603913,-9.316944,-0.65441984,0.38
-7.6198688,-9.328917,-0.6533856,0.34
-7.553363,-9.309877,-0.6493174,0.36
-7.4998426,-9.304845,-0.6462656,0.36
-7.4643164,-9.32182,-0.64523757,0.39
-7.420576,-9.299795,-0.64218974,0.35
-7.370056,-9.297764,-0.64014184,0.36
-7.328533,-9.306736,-0.6391057,0.37
-7.274005,-9.297703,-0.6360518,0.36
-7.2254953,-9.298672,-0.6340066,0.37
-7.178976,-9.300642,-0.6319636,0.39
-7.1422253,-9.284622,-0.6289242,0.38
-7.094705,-9.284592,-0.6268797,0.36
-7.051185,-9.289564,-0.62484044,0.34
-6.9986677,-9.282532,-0.622789,0.39
-6.952145,-9.282503,-0.6207455,0.34
-6.9056315,-9.283474,-0.6187021,0.36
-6.862113,-9.287446,-0.6166626,0.37
-6.81259,-9.282415,-0.61461467,0.39
-6.7868295,-9.2784,-0.6135893,0.34
-6.7383165,-9.275371,-0.61054295,0.39
-6.6917925,-9.273342,-0.6084987,0.34
-6.6422796,-9.2683115,-0.6064508,0.35
-6.594756,-9.264283,-0.604405,0.39
-6.5512443,-9.267255,-0.60236526,0.38
-6.533479,-9.273244,-0.6023505,0.32
-6.4819684,-9.264214,-0.59929943,0.39
-6.4364395,-9.261185,-0.5972559,0.38
-6.3939314,-9.265158,-0.5962174,0.38
-6.344414,-9.257129,-0.5931685,0.38
-6.3048854,-9.262104,-0.5921331,0.36
-6.265366,-9.268079,-0.590098,0.36
-6.2346106,-9.255061,-0.5890652,0.33
-6.1930947,-9.258035,-0.5870273,0.36
-6.150577,-9.259009,-0.5849879,0.4
-6.10905,-9.259983,-0.5839494,0.36
-6.0655327,-9.258957,-0.5819084,0.34
-6.022011,-9.25693,-0.57986706,0.36
-5.9784985,-9.255904,-0.57782614,0.36
-5.942747,-9.233884,-0.57578576,0.36
-5.91222,-9.250864,-0.57476264,0.36
-5.871693,-9.25184,-0.57372516,0.36
-5.826183,-9.246812,-0.5716811,0.32
-5.7876577,-9.250788,-0.5706464,0.41
-5.784111,-9.308779,-0.5736616,0.25
-5.791323,-9.350778,-0.57668173,0.54
-5.78777,-9.408769,-0.579697,0.17
-5.635342,-9.236697,-0.5635,0.35
-5.5988235,-9.243674,-0.5624681,0.38
-5.5613036,-9.248651,-0.5614348,0.46
-5.5207796,-9.247627,-0.5593968,0.36
-5.4702716,-9.231597,-0.5573446,0.44
-5.4565,-9.240589,-0.55733466,0.35
-5.412989,-9.235563,-0.5552926,0.45
-5.374476,-9.238539,-0.55325776,0.36
-5.3329453,-9.233514,-0.5522175,0.45
-5.293434,-9.234491,-0.55018115,0.35
-5.250913,-9.228467,-0.5481397,0.43
-5.2213793,-9.243446,-0.5481171,0.34
-5.1886315,-9.22143,-0.5460796,0.43
-5.1561093,-9.2324095,-0.545053,0.35
-5.110599,-9.221383,-0.54300714,0.48
-5.0770774,-9.230363,-0.541979,0.27
-5.0305643,-9.216336,-0.53993136,0.51
-4.9340982,-9.11529,-0.530809,0.38
-4.9395366,-9.190285,-0.53483856,0.0
-1.1266434,-4.6064873,-0.13276672,0.0
-1.1210914,-4.6374817,-0.13477224,0.0
-1.1075612,-4.643473,-0.13476168,0.0
-1.0980283,-4.663466,-0.13575973,0.0
-1.1064512,-4.743464,-0.14179537,0.0
-1.0769557,-4.6964507,-0.13775161,0.0
-1.08716,-4.758452,-0.1417827,0.0
-1.0826067,-4.796446,-0.14479178,0.0
-1.0820543,-4.8504415,-0.1478102,0.0
-1.064522,-4.8434315,-0.14779158,0.0
-1.0275762,-5.2643805,-0.17490785,0.0
-1.0080507,-5.25337,-0.17388625,0.0
-0.98953146,-5.24736,-0.1728674,0.0
-1.8104265,-9.076565,-0.44399536,0.11
-1.7906713,-9.0535555,-0.44296995,0.3
-1.7641449,-9.066542,-0.44295228,0.37
-1.7346188,-9.064527,-0.44292647,0.36
-1.7051032,-9.065513,-0.44190183,0.33
-1.6755786,-9.063498,-0.4418761,0.35
-1.6460613,-9.063483,-0.44085118,0.34
-1.6165441,-9.063469,-0.4408263,0.37
-1.6007849,-9.057461,-0.43981072,0.36
-1.5722672,-9.062447,-0.4397886,0.33
-1.5407476,-9.049433,-0.4387572,0.35
-1.513215,-9.054419,-0.43873602,0.34
-1.4857014,-9.066404,-0.4387175,0.38
-1.4561692,-9.05939,-0.43769017,0.32
-1.4246628,-9.049376,-0.43666002,0.34
-1.4108931,-9.050368,-0.4366489,0.34
-1.382373,-9.053355,-0.4366263,0.34
-1.3518609,-9.046341,-0.43559825,0.34
-1.3253281,-9.057326,-0.4365804,0.37
-1.2948201,-9.051312,-0.4355528,0.36
-1.2662947,-9.051299,-0.4345292,0.36
-1.252526,-9.052292,-0.4345182,0.36
-1.222018,-9.045278,-0.4334903,0.36
-1.1934937,-9.045264,-0.4334668,0.36
-1.1659689,-9.052251,-0.43344682,0.36
-1.1344626,-9.037237,-0.43241513,0.35
-1.1079241,-9.045224,-0.43239644,0.35
-1.0803975,-9.051211,-0.4323762,0.35
-1.0636516,-9.038203,-0.4313575,0.35
-1.0351341,-9.04019,-0.43133497,0.34
-1.0066053,-9.036177,-0.43131018,0.35
-0.9770868,-9.028164,-0.43028304,0.35
-0.9495725,-9.04015,-0.43026534,0.35
-0.9230351,-9.049137,-0.43124726,0.34
-0.89251816,-9.031124,-0.42921558,0.34
-0.8777637,-9.029117,-0.42920285,0.36
-0.8502387,-9.035105,-0.42918298,0.35
-0.82072896,-9.030091,-0.42915723,0.35
-0.7922026,-9.024077,-0.42813194,0.35
-0.76567125,-9.0370655,-0.42911568,0.34
-0.73615515,-9.0260515,-0.42808774,0.35
-0.70763505,-9.02304,-0.42706373,0.34
-0.69487214,-9.038033,-0.4280594,0.33
-0.6643657,-9.02002,-0.427028,0.34
-0.6368413,-9.026007,-0.42700842,0.35
-0.6103036,-9.034995,-0.42699084,0.35
-0.57980216,-9.0179825,-0.42595997,0.34
-0.5522722,-9.01897,-0.42593858,0.34
-0.5395037,-9.031963,-0.42693356,0.34
-0.50998807,-9.01395,-0.42490318,0.35
-0.48147953,-9.018938,-0.42488268,0.35
-0.45494142,-9.028926,-0.42586574,0.34
-0.42543256,-9.014914,-0.42483705,0.34
-0.397903,-9.014901,-0.42481548,0.35
-0.37038144,-9.024889,-0.4247979,0.34
-0.3546348,-9.003882,-0.42377734,0.33
-0.3271077,-9.005871,-0.42375666,0.33
-0.299588,-9.019858,-0.42474076,0.33
-0.27106854,-9.006845,-0.4237135,0.33
-0.24354155,-9.008834,-0.42369297,0.35
-0.21601945,-9.020823,-0.42367643,0.35
-0.20126592,-9.006816,-0.42265952,0.34
-0.1737365,-9.002804,-0.42263672,0.34
-0.14621243,-9.011792,-0.4226191,0.34
-0.11770004,-9.00678,-0.42259523,0.34
-0.089187674,-8.997768,-0.42156982,0.35
-0.06264676,-9.012756,-0.4225555,0.35
-0.03413365,-8.993745,-0.4215262,0.33
-0.02037165,-9.002739,-0.4215193,0.34
0.007154458,-9.0167265,-0.42250398,0.35
0.035664994,-8.999715,-0.42147556,0.34
0.06319134,-8.994704,-0.42145273,0.34
0.090718284,-9.004692,-0.42143595,0.34
0.119226545,-8.993681,-0.42141008,0.32
0.1467514,-8.98967,-0.4203878,0.34
0.16051807,-9.005664,-0.42138386,0.33
0.18803953,-8.987653,-0.42035607,0.34
0.2165476,-8.985641,-0.42033395,0.33
0.24407722,-8.995629,-0.42131743,0.34
0.2715995,-8.987618,-0.42029375,0.35
0.29912513,-8.987608,-0.42027333,0.33
0.3276328,-8.985596,-0.42025143,0.34
0.3413945,-8.98359,-0.42024046,0.34
0.36892888,-8.997579,-0.42122573,0.34
0.39644885,-8.988567,-0.4202019,0.33
0.42396155,-8.970557,-0.41917446,0.33
0.45247683,-8.979546,-0.4201572,0.35
0.48000646,-8.984535,-0.42013907,0.34
0.49376938,-8.9845295,-0.42012903,0.35
0.5212926,-8.981518,-0.4201078,0.34
0.5488175,-8.980507,-0.4200874,0.34
0.5773295,-8.983496,-0.42006797,0.33
0.60485923,-8.9864855,-0.42104927,0.33
0.63237315,-8.975475,-0.42002502,0.33
0.65989685,-8.973464,-0.42000443,0.34
0.67365986,-8.973458,-0.41999453,0.33
0.702174,-8.9774475,-0.41997573,0.32
0.72969407,-8.972437,-0.41995406,0.35
0.7572232,-8.974426,-0.41993526,0.33
0.78474426,-8.970416,-0.41991407,0.34
0.81325877,-8.973405,-0.42089507,0.33
0.84077936,-8.969395,-0.419874,0.33
0.8545478,-8.972389,-0.42086548,0.33
0.88206875,-8.968379,-0.4208445,0.34
0.9095928,-8.966368,-0.42082435,0.34
0.93710804,-8.959358,-0.41980228,0.33
0.9656223,-8.961349,-0.42078313,0.34
0.9931606,-8.967338,-0.42076635,0.33
1.006921,-8.965333,-0.42075598,0.33
1.0344418,-8.961323,-0.42073527,0.33
1.0619487,-8.950313,-0.41971183,0.34
1.0904876,-8.964301,-0.42069775,0.34
1.1189982,-8.963291,-0.42167774,0.33
1.1465212,-8.960281,-0.42165765,0.33
1.1740353,-8.953272,-0.42063597,0.35
1.1878021,-8.954267,-0.420627,0.35
1.2153342,-8.955256,-0.42160863,0.34
1.2438473,-8.955246,-0.42158926,0.34
1.2723631,-8.956236,-0.42157033,0.34
1.2999012,-8.959226,-0.42255294,0.35
1.327418,-8.953217,-0.42253196,0.35
1.3559399,-8.956206,-0.42251402,0.34
1.3697007,-8.954202,-0.42250398,0.35
1.3982158,-8.954192,-0.4224849,0.33
1.4257429,-8.952182,-0.42246574,0.34
1.4542563,-8.951172,-0.4234464,0.33
1.481784,-8.9491625,-0.4234273,0.35
1.5093062,-8.945152,-0.42340752,0.35
1.53782,-8.944143,-0.42338833,0.34
1.5525931,-8.952137,-0.42438185,0.34
1.580116,-8.948128,-0.42436218,0.34
1.6076332,-8.94212,-0.42434177,0.34
1.6371497,-8.947108,-0.42432454,0.34
1.6656655,-8.946099,-0.4243056,0.34
1.6921997,-8.94009,-0.42428598,0.34
1.7079564,-8.947084,-0.4252786,0.34
1.7354869,-8.945075,-0.42526004,0.34
1.7630017,-8.9380665,-0.42523953,0.34
1.7925225,-8.943056,-0.42622265,0.36
1.8200375,-8.936048,-0.42620224,0.35
1.8495594,-8.941038,-0.42618546,0.36
1.8770849,-8.93703,-0.42616636,0.35
1.8908547,-8.937024,-0.42715764,0.34
1.9203684,-8.939015,-0.4271398,0.33
1.9488957,-8.940005,-0.42712224,0.35
1.9764152,-8.933997,-0.42710254,0.35
2.0049257,-8.929988,-0.42808312,0.35
2.03446,-8.936978,-0.4280675,0.33
2.0629792,-8.934969,-0.42904896,0.35
2.0777454,-8.9379635,-0.429041,0.34
2.1072679,-8.940954,-0.43002394,0.34
2.1347814,-8.932945,-0.43000376,0.35
2.1623101,-8.928938,-0.42998526,0.35
2.192838,-8.936928,-0.43096977,0.36
2.2193441,-8.92292,-0.429948,0.35
2.2478619,-8.919911,-0.43092948,0.34
2.267635,-8.943905,-0.43192703,0.35
2.2921493,-8.923898,-0.43090427,0.34
2.3226776,-8.930888,-0.4318886,0.35
2.353199,-8.935879,-0.4328723,0.35
2.379718,-8.9248705,-0.43285203,0.33
2.4072332,-8.9168625,-0.43283245,0.34
2.4270027,-8.937856,-0.43482903,0.37
2.4495203,-8.91185,-0.43280536,0.35
2.4810424,-8.919841,-0.43378985,0.32
2.510576,-8.922832,-0.43477365,0.37
2.5390856,-8.916823,-0.43475455,0.36
2.5666163,-8.911815,-0.43473646,0.36
2.5873685,-8.930808,-0.43673182,0.34
2.6118834,-8.911801,-0.43571007,0.34
2.6444151,-8.923792,-0.43769595,0.32
2.6739397,-8.923783,-0.4376789,0.37
2.6974504,-8.900777,-0.43665633,0.35
2.7309842,-8.915768,-0.43864298,0.33
2.7625134,-8.922758,-0.4396277,0.34
2.7722635,-8.903756,-0.4386147,0.34
2.8047876,-8.912746,-0.43959975,0.34
2.837314,-8.921737,-0.44058487,0.37
2.8638408,-8.91173,-0.440566,0.36
2.8923514,-8.904721,-0.44054726,0.33
2.924871,-8.911713,-0.4415318,0.34
2.9543982,-8.910705,-0.44251496,0.34
2.9681544,-8.905701,-0.44250536,0.34
3.0006776,-8.912692,-0.44349006,0.34
3.0242,-8.892686,-0.4424693,0.35
3.058726,-8.905676,-0.44445536,0.35
3.0892408,-8.904668,-0.44443825,0.35
3.116771,-8.89766,-0.44442052,0.34
3.1482885,-8.899652,-0.44540417,0.36
3.1680572,-8.913646,-0.44739884,0.34
3.1905723,-8.889642,-0.44537744,0.36
3.2220924,-8.891633,-0.44636127,0.35
3.2566292,-8.904623,-0.44834775,0.36
3.2811296,-8.883617,-0.4473266,0.36
3.3116512,-8.882609,-0.44831002,0.34
3.333418,-8.900603,-0.44930536,0.34
3.3589318,-8.884598,-0.44928575,0.35
3.3904696,-8.888589,-0.4502707,0.37
3.4239898,-8.894581,-0.4512554,0.36
3.4485133,-8.877575,-0.45123616,0.37
3.4820359,-8.883566,-0.45222098,0.35
3.518551,-8.895556,-0.45420665,0.38
3.5263119,-8.875555,-0.45219508,0.37
3.557838,-8.876547,-0.45317924,0.37
3.59536,-8.891538,-0.45516568,0.36
3.621885,-8.879531,-0.45514765,0.38
3.653409,-8.879523,-0.45613164,0.37
3.6849217,-8.877516,-0.45711496,0.37
3.7154438,-8.874508,-0.45709848,0.36
3.7302096,-8.872505,-0.45709032,0.38
3.7637262,-8.875497,-0.45807466,0.35
3.7932532,-8.87049,-0.45905808,0.38
3.826773,-8.873481,-0.4600426,0.37
3.858304,-8.873474,-0.46102703,0.38
3.8878145,-8.865468,-0.46100956,0.38
3.9213443,-8.869459,-0.46199465,0.35
3.9370987,-8.8674555,-0.4629862,0.39
3.9706242,-8.870448,-0.46397105,0.35
3.9981406,-8.858442,-0.46395332,0.39
4.0336595,-8.864433,-0.4649384,0.35
4.062188,-8.856428,-0.46492177,0.39
4.0997148,-8.867418,-0.4669079,0.3
4.117477,-8.870415,-0.46790054,0.5
4.2300587,-9.049382,-0.48191252,0.0
2.8404713,-5.880816,-0.24341352,0.0
2.8409781,-5.8338175,-0.24039564,0.0
2.8444755,-5.7928176,-0.23837857,0.0
2.8610067,-5.7828135,-0.23836671,0.0
2.8605094,-5.734815,-0.23534903,0.0
2.8642662,-5.7198143,-0.2343416,0.0
2.8817816,-5.71081,-0.23432975,0.08
2.8903112,-5.6848087,-0.23231596,0.13
2.9078252,-5.675805,-0.23230417,0.23
2.9253395,-5.6668005,-0.23229243,0.25
2.9378748,-5.6497984,-0.23228016,0.26
2.9473858,-5.6247964,-0.23126641,0.11
2.9591591,-5.6277933,-0.23126192,0.16
2.9756713,-5.6167903,-0.23125008,0.3
2.9821868,-5.586789,-0.229236,0.16
3.0067036,-5.5917835,-0.23022634,0.38
3.0232372,-5.58278,-0.23021534,0.21
3.0347414,-5.5617776,-0.22920235,0.16
3.053527,-5.578773,-0.23119985,0.46
3.0780504,-5.583767,-0.23219037,0.22
3.0965543,-5.575763,-0.23217899,0.23
3.1050754,-5.5507617,-0.23116606,0.0
3.123602,-5.544758,-0.23115548,0.0
3.1541312,-5.56075,-0.23314744,0.0
3.1766582,-5.5617447,-0.23413767,0.0
3.1984298,-5.5817394,-0.2361351,0.0
3.2039413,-5.5507393,-0.23412155,0.05
5.082115,-8.878213,-0.4974751,0.2
5.122647,-8.887205,-0.4994614,0.34
5.1561584,-8.881199,-0.50044566,0.38
5.1789203,-8.889195,-0.50143903,0.37
5.2144384,-8.887188,-0.5024239,0.33
5.2699833,-8.922176,-0.5064131,0.58
8.0268755,-13.661419,-0.88488966,0.21
9.692162,-16.443966,-1.1081519,0.27
9.735672,-16.401962,-1.107122,0.2
9.7931795,-16.381956,-1.1080939,0.17
9.811929,-16.354954,-1.1070782,0.41
9.858435,-16.31695,-1.1060487,0.25
9.906943,-16.282944,-1.1060199,0.26
9.961454,-16.258938,-1.1059921,0.26
10.019966,-16.24093,-1.1069648,0.27
10.089486,-16.241919,-1.1099397,0.29
10.141995,-16.213913,-1.1099119,0.26
10.161741,-16.187912,-1.1088965,0.3
10.200247,-16.137909,-1.107867,0.28
10.238752,-16.087908,-1.1058377,0.29
10.2782545,-16.038906,-1.1048086,0.28
10.320758,-15.994902,-1.1037798,0.24
10.359264,-15.9459,-1.1027511,0.33
7.9847665,-12.142526,-0.7934223,0.2
7.2086873,-10.823734,-0.6882911,0.41
7.2071857,-10.74774,-0.6842681,0.36
7.216693,-10.689743,-0.6812468,0.34
7.2101846,-10.60675,-0.67622364,0.63
7.212692,-10.539754,-0.6722022,0.33
7.2244534,-10.522754,-0.67119294,0.19
7.172935,-10.375771,-0.66116613,0.21
6.3731,-9.126978,-0.559064,0.26
6.3836217,-9.082978,-0.55704683,0.39
6.37312,-9.006986,-0.5520274,0.38
6.372629,-8.94699,-0.5490093,0.43
6.386131,-8.905991,-0.54699236,0.31
6.3628807,-8.843999,-0.5429816,0.43
6.4154058,-8.859989,-0.54596853,0.37
6.4519253,-8.852984,-0.5469541,0.48
6.4894505,-8.84798,-0.54793996,0.37
6.5219674,-8.834975,-0.5489252,0.45
6.5724926,-8.846967,-0.55091196,0.36
6.6040154,-8.832963,-0.55189747,0.39
6.634778,-8.845959,-0.5538911,0.39
6.6743064,-8.842953,-0.55487734,0.39
6.7088246,-8.831949,-0.55586296,0.4
6.7533436,-8.833942,-0.5578491,0.4
6.794864,-8.831937,-0.55983526,0.39
6.824382,-8.813933,-0.55982065,0.46
6.8709106,-8.818927,-0.56180733,0.38
6.9036713,-8.832921,-0.563801,0.39
6.938198,-8.821918,-0.56478703,0.4
6.9787216,-8.817913,-0.56677324,0.39
7.023238,-8.817906,-0.5687595,0.38
7.064763,-8.814901,-0.56974584,0.39
7.1062813,-8.810897,-0.57173204,0.39
7.138046,-8.822891,-0.5737257,0.39
7.17857,-8.817886,-0.57471204,0.43
7.225094,-8.8198805,-0.5766986,0.42
7.270622,-8.820873,-0.5796853,0.41
7.298131,-8.797873,-0.5796709,0.41
7.3466573,-8.801867,-0.58165765,0.4
7.4041815,-8.815858,-0.58464456,0.42
7.422943,-8.810856,-0.58563775,0.43
7.466467,-8.807851,-0.5866244,0.43
7.512989,-8.807845,-0.589611,0.43
7.551507,-8.797841,-0.59059733,0.41
7.595037,-8.794836,-0.5925842,0.43
7.6455607,-8.79883,-0.594571,0.43
7.6713185,-8.800827,-0.5955643,0.43
7.7198496,-8.80282,-0.5985513,0.43
7.7663674,-8.800816,-0.6005379,0.42
7.8118887,-8.797811,-0.60252464,0.37
7.889416,-8.830798,-0.6075118,0.65
7.7939053,-8.667824,-0.5944966,0.0
4.9054995,-5.3534493,-0.29244396,0.0
4.8802495,-5.308456,-0.2884392,0.0
4.8977785,-5.2954545,-0.28843072,0.0
4.807157,-4.474526,-0.24424902,0.0
4.836676,-4.4745226,-0.2452418,0.0
4.8191943,-4.430528,-0.24323583,0.0
4.8097167,-4.394532,-0.2402298,0.0
4.827238,-4.3835306,-0.24122308,0.0
4.802005,-3.6665926,-0.2080786,0.0
4.7995515,-3.6425946,-0.20707457,0.0
4.801075,-3.6205966,-0.20607018,0.0
4.8215876,-3.612595,-0.20706479,0.0
4.814104,-3.5835986,-0.20506091,0.0
4.7976117,-3.5476034,-0.2030575,0.0
4.7903686,-3.5306053,-0.2020558,0.0
4.8848863,-3.341614,-0.20000686,0.0
4.8326488,-3.2946231,-0.19500814,0.0
4.814158,-3.2596278,-0.19300568,0.0
4.8106785,-3.2356303,-0.19200248,0.0
4.830206,-3.2276294,-0.191998,0.0
4.8107185,-3.1926343,-0.18999578,0.0
4.8262615,-3.1826339,-0.19099173,0.0
4.814759,-3.1526377,-0.18898904,0.0
4.8295383,-3.1526365,-0.18998668,0.0
4.8320494,-3.132638,-0.1889833,0.0
4.8415694,-3.1176388,-0.1889796,0.0
4.8490953,-3.1016397,-0.18897611,0.0
4.7826767,-2.7456796,-0.17293873,0.0
4.8131986,-2.7436774,-0.17393441,0.0
4.774712,-2.7016842,-0.17093463,0.0
4.803263,-2.6996827,-0.17193066,0.0
4.783772,-2.668687,-0.16992967,0.0
4.795291,-2.6556876,-0.16992673,0.0
4.790808,-2.6336904,-0.1689249,0.0
4.8115964,-2.6366885,-0.17092259,0.0
4.829955,-2.5406969,-0.16891047,0.0
4.875502,-2.5466933,-0.17190568,0.0
4.8850274,-2.532694,-0.17190324,0.0
4.918567,-2.5316923,-0.17389928,0.0
5.963152,-2.443648,-0.23779635,0.0
5.9696946,-2.4256504,-0.2377954,0.0
8.069465,-3.2674515,-0.39265862,0.0
8.112041,-3.197461,-0.39365563,0.34
8.126571,-3.174464,-0.39465475,0.3
8.124323,-3.1584666,-0.39365494,0.37
8.125853,-3.130471,-0.39265496,0.38
8.133378,-3.1044748,-0.39265466,0.0
8.135884,-3.0754793,-0.39265475,0.0
8.183424,-3.0654793,-0.395652,0.0
8.337327,-2.932496,-0.40264574,0.0
8.634211,-2.9034932,-0.42063147,0.0
8.6757345,-2.8874948,-0.42363,0.0
8.7042675,-2.8674974,-0.42462942,0.0
8.751024,-2.8674963,-0.4276272,0.0
8.817557,-2.8594959,-0.43262446,0.0
8.840082,-2.8364992,-0.43362442,0.0
8.8446045,-2.8075042,-0.4326255,0.0
8.963144,-2.8155,-0.44061998,0.0
8.974669,-2.7885044,-0.4416208,0.0
9.004186,-2.7665074,-0.44262066,0.0
9.070963,-2.7725048,-0.4476176,0.0
9.130486,-2.7595057,-0.45061588,0.0
9.206016,-2.7515056,-0.4556133,0.0
9.315553,-2.753503,-0.4626089,0.0
13.636354,-3.9102201,-0.77037424,0.43
13.608106,-3.8782265,-0.7683777,0.4
13.617631,-3.8352346,-0.76838094,0.39
13.62515,-3.791243,-0.7673844,0.38
13.613672,-3.7422526,-0.76638895,0.44
13.619197,-3.6982608,-0.7653926,0.36
13.629718,-3.655269,-0.7653961,0.42
13.614237,-3.6052787,-0.7634012,0.36
13.610007,-3.5822833,-0.7634034,0.41
13.628527,-3.541291,-0.7634068,0.38
13.612045,-3.4913008,-0.7614121,0.38
13.61257,-3.4463093,-0.76141644,0.38
13.619088,-3.402318,-0.7604206,0.38
13.617618,-3.3573265,-0.7594253,0.34
13.61814,-3.3123353,-0.75942993,0.38
13.624901,-3.2913394,-0.75943196,0.37
13.607426,-3.242349,-0.7574376,0.44
13.61095,-3.1983573,-0.7574423,0.36
13.618474,-3.1553657,-0.75644684,0.43
13.61199,-3.108375,-0.7554522,0.37
13.609517,-3.0633838,-0.75445735,0.48
13.618273,-3.0423877,-0.7554596,0.44
13.601799,-2.9943972,-0.7534656,0.41
13.60532,-2.9504058,-0.7534707,0.43
13.603842,-2.9054148,-0.75247616,0.46
13.614368,-2.863423,-0.75248104,0.46
13.630893,-2.8224308,-0.7534858,0.29
13.635422,-2.7794392,-0.7524912,0.18
13.6471815,-2.759443,-0.7534935,0.29
13.561698,-2.6974561,-0.74650294,0.18
13.722231,-2.6854572,-0.7575017,0.16
13.751754,-2.6464646,-0.7585064,0.16
13.810284,-2.6134706,-0.7625099,0.44
13.85081,-2.5764775,-0.7645142,0.19
13.904335,-2.541484,-0.76851827,0.17
13.959093,-2.5284863,-0.77151924,0.23
14.036621,-2.4974916,-0.77652246,0.24
14.115151,-2.4664974,-0.7815258,0.26
14.214671,-2.4375024,-0.7875286,0.26
14.328203,-2.411507,-0.7955309,0.19
14.462727,-2.3875108,-0.80453277,0.2
17.398087,-2.794409,-1.0084347,0.42
19.541658,-3.0803375,-1.1563653,0.28
19.480175,-3.007353,-1.1513779,0.47
19.451696,-2.9403677,-1.1493893,0.23
17.46118,-2.5804534,-1.0104687,0.33
19.490742,-2.8213928,-1.150409,0.36
19.518505,-2.7943983,-1.1524132,0.32
19.495035,-2.7294123,-1.1504246,0.39
19.682558,-2.6924195,-1.1624295,0.37
19.570078,-2.6144364,-1.154444,0.32
19.427603,-2.5334542,-1.1444595,0.34
19.441128,-2.473467,-1.1444701,0.35
19.815657,-2.458469,-1.1694701,0.34
19.825413,-2.4274755,-1.1704757,0.34
19.798939,-2.3614895,-1.168488,0.35
19.815464,-2.3005028,-1.1684992,0.35
19.726986,-2.2275186,-1.1625134,0.3
19.583506,-2.148536,-1.1515291,0.46
19.58303,-2.0865493,-1.1515409,0.26
20.040804,-2.104544,-1.1825349,0.33
20.011324,-2.0375586,-1.1805481,0.35
20.046848,-1.9775714,-1.1825596,0.46
20.143375,-1.9235828,-1.1885699,0.36
20.283907,-1.8735931,-1.1975791,0.25
20.438433,-1.8236035,-1.2085885,0.35
20.488955,-1.7626166,-1.2116007,0.4
20.513718,-1.7326231,-1.2126068,0.16
20.648243,-1.6786345,-1.2216173,0.17
27.050833,-2.122524,-1.6635033,0.16
27.097359,-2.0405421,-1.6665207,0.21
27.168884,-1.9605601,-1.6705377,0.18
27.223408,-1.8785783,-1.6745553,0.32
27.262173,-1.8385873,-1.6765641,0.19
27.313696,-1.7556058,-1.6795821,0.17
27.324223,-1.6706249,-1.680601,0.23
27.350742,-1.5856438,-1.68162,0.18
27.40527,-1.5026624,-1.6856385,0.21
27.456793,-1.4186811,-1.6886575,0.18
27.50032,-1.3347,-1.6916767,0.0
27.502085,-1.2917097,-1.6916866,0.12
27.758139,-1.1297457,-1.7087238,0.16
27.86666,-1.0457646,-1.7157434,0.15
27.823185,-0.9567846,-1.7127646,0.17
27.783714,-0.86880445,-1.7097855,0.1
27.784237,-0.78082424,-1.7098066,0.15
27.778997,-0.7368341,-1.7098172,0.09
27.80053,-0.65085346,-1.710838,0.15
27.822054,-0.56387305,-1.7118591,0.1
27.829576,-0.47589284,-1.7128808,0.0
27.828106,-0.3889124,-1.7129023,0.0
27.850634,-0.30193198,-1.7139238,0.0
27.851158,-0.21395181,-1.7139459,0.0
27.854925,-0.1709615,-1.7139567,0.0
27.901447,-0.0829813,-1.717979,0.0
26.073837,0.0279937,-1.7200072,0.09
26.077364,0.10997524,-1.720028,0.15
26.092892,0.19195679,-1.7220491,0.1
26.111416,0.2749381,-1.7230706,0.14
26.095947,0.35591987,-1.7220916,0.1
26.118708,0.39791042,-1.7241025,0.16
26.135239,0.47989196,-1.7251241,0.16
26.128765,0.5618735,-1.7251457,0.16
26.10829,0.64385504,-1.7231675,0.16
26.11782,0.72583663,-1.7241894,0.16
26.135347,0.8088179,-1.7262117,0.16
26.129877,0.89079946,-1.7262337,0.16
26.12164,0.93179023,-1.725245,0.1
26.140167,1.0147716,-1.7272675,0.15
26.134697,1.0967531,-1.72729,0.1
26.132225,1.1787348,-1.7273126,0.16
26.146753,1.261716,-1.7283356,0.1
26.151281,1.3446975,-1.7293587,0.15
26.15705,1.3856883,-1.7293701,0.1
26.178576,1.4696693,-1.7313937,0.15
26.169104,1.551651,-1.731417,0.09
26.183638,1.6346322,-1.7334405,0.14
26.186165,1.7176137,-1.7334642,0.1
26.199692,1.8015949,-1.7354883,0.14
26.213223,1.885576,-1.7365124,0.1
26.25599,1.9295659,-1.7395252,0.15
26.264517,2.0135472,-1.7415497,0.1
26.302046,2.0995278,-1.7445747,0.0
26.32658,2.1845088,-1.7465998,0.0
26.366108,2.2714891,-1.7506254,0.09
26.412638,2.3594692,-1.7546514,0.16
26.464165,2.4484494,-1.758678,0.16
26.499931,2.4934392,-1.7616915,0.1
26.554459,2.583419,-1.7667184,0.15
26.607992,2.672399,-1.7707452,0.1
26.650524,2.761379,-1.7747722,0.14
26.704052,2.8523583,-1.7797998,0.09
26.762585,2.9433382,-1.7848277,0.15
26.816349,2.992327,-1.7888426,0.09
26.869877,3.0843062,-1.7938709,0.14
26.937412,3.1772854,-1.7998997,0.09
26.995945,3.2702644,-1.8049285,0.14
27.058475,3.3642433,-1.8099577,0.09
27.120005,3.459222,-1.8159876,0.14
27.17154,3.552201,-1.8200167,0.09
27.247303,3.606189,-1.8260337,0.0
27.306837,3.7011676,-1.8320637,0.0
27.373367,3.7981458,-1.8380946,0.0
27.4359,3.895124,-1.8431255,0.0
27.505432,3.993102,-1.8491569,0.0
27.561964,4.0900803,-1.855188,0.0
27.642498,4.1910577,-1.8622205,0.0
27.68926,4.243046,-1.8662374,0.0
27.775793,4.346023,-1.8732708,0.0
27.802326,4.440002,-1.8763015,0.0
27.89886,4.544978,-1.8843358,0.0
27.909395,4.6369576,-1.8863661,0.0
27.98093,4.7389345,-1.8933997,0.0
28.01846,4.836913,-1.8974322,0.0
28.07723,4.891901,-1.9024504,0.0
28.127764,4.9918785,-1.9074837,0.0
28.176292,5.092856,-1.9125174,0.13
28.22283,5.1928334,-1.916551,0.09
28.286362,5.2968106,-1.922586,0.14
28.321898,5.3957887,-1.9266195,0.09
28.367664,5.4507766,-1.9306381,0.09
28.422201,5.5537534,-1.936673,0.08
28.550734,5.6727266,-1.9477133,0.09
28.65727,5.787701,-1.9567524,0.14
28.542807,5.8576865,-1.9497771,0.0
28.291342,5.898679,-1.9327929,0.0
27.991875,5.9286733,-1.9108051,0.0
27.981642,5.972664,-1.9108205,0.16
28.239178,6.1206307,-1.9318706,0.11
28.242712,6.21461,-1.9339037,0.16
28.26925,6.313588,-1.9379383,0.29
28.268787,6.406568,-1.9389713,0.19
28.246323,6.495549,-1.939003,0.0
25.17385,5.870703,-1.7078027,0.0
25.152617,5.907695,-1.706816,0.0
25.137152,5.987678,-1.7068446,0.0
25.063694,6.0526648,-1.7028682,0.0
25.189226,6.1676393,-1.7139084,0.12
24.844763,6.165642,-1.6899104,0.16
24.7333,6.2206316,-1.6829311,0.23
23.049828,5.873718,-1.5558194,0.15
22.941595,5.8847165,-1.5488243,0.28
22.04866,5.8037405,-1.4828022,0.58
22.747198,6.06468,-1.5378911,0.23
22.405737,6.0486865,-1.5138882,0.2
22.39727,6.122671,-1.5139153,0.39
22.415043,6.164662,-1.5169306,0.24
22.156578,6.168664,-1.4979345,0.3
22.01211,6.2036576,-1.4889486,0.22
21.669645,6.180666,-1.4639435,0.39
21.791183,6.2896423,-1.4749826,0.3
21.807722,6.3686256,-1.4780116,0.42
21.628252,6.390623,-1.4660217,0.25
19.417013,5.768774,-1.2958131,0.0
19.077545,5.733785,-1.2718034,0.0
18.85908,5.7327876,-1.2558051,0.0
18.684616,5.7437873,-1.2438111,0.0
18.418148,5.725795,-1.2248071,0.0
18.203686,5.721798,-1.2098079,0.12
17.988447,5.6858077,-1.1937968,0.1
17.795988,5.68581,-1.1797987,0.14
17.593517,5.6828136,-1.1657999,0.1
17.410057,5.683816,-1.1528022,0.15
17.255589,5.693816,-1.1428077,0.28
17.070127,5.691819,-1.129809,0.19
16.919657,5.7018194,-1.1198145,0.21
16.761423,5.6778264,-1.1078072,0.16
16.659962,5.701823,-1.1018175,0.39
16.541494,5.719822,-1.0938258,0.25
16.451029,5.746818,-1.0878371,0.27
16.36157,5.7728143,-1.0828481,0.28
16.3031,5.8108077,-1.0788634,0.27
16.278639,5.859799,-1.0788826,0.24
16.239405,5.874797,-1.0768888,0.18
16.223944,5.926787,-1.0769091,0.43
16.204481,5.977778,-1.076929,0.23
16.202011,6.035767,-1.0779513,0.23
16.171547,6.0827584,-1.0769701,0.18
16.180088,6.1437464,-1.0799935,0.44
16.144623,6.188739,-1.0780115,0.25
16.144394,6.2177334,-1.0790229,0.23
16.127924,6.2707233,-1.0790439,0.17
16.126461,6.3287125,-1.0810666,0.43
16.103998,6.378704,-1.0810865,0.25
16.10054,6.435693,-1.082109,0.19
16.090067,6.491683,-1.0831312,0.0
16.08661,6.5486727,-1.0841538,0.12
13.177347,5.387947,-0.85274106,0.1
13.026878,5.374953,-0.84273803,0.16
12.904416,5.3719563,-0.83473855,0.16
12.791947,5.3729587,-0.8267405,0.1
12.6844845,5.374961,-0.81974286,0.15
12.61602,5.3929596,-0.8157509,0.0
12.509787,5.3709664,-0.8077438,0.0
11.700297,5.3559904,-0.7527498,0.2
11.626833,5.366991,-0.7477553,0.21
11.412366,5.3120065,-0.7317367,0.0
11.475902,5.385992,-0.7387652,0.0
10.712264,5.1740513,-0.6806925,0.13
10.682806,5.201048,-0.67970365,0.27
10.691332,5.2480397,-0.68272233,0.23
10.6628685,5.2760363,-0.681734,0.61
10.8714075,5.422005,-0.6997893,0.0
11.367179,5.6919446,-0.7418898,0.0
11.400726,5.7529335,-0.7459139,0.0
10.665248,5.425012,-0.68679386,0.0
10.595774,5.433013,-0.68279827,0.11
10.52531,5.439015,-0.67780185,0.21
10.353846,5.392029,-0.6647857,0.0
10.53639,5.5290003,-0.6818381,0.06
12.405192,6.533771,-0.83821374,0.21
12.394728,6.5787644,-0.8392325,0.19
12.398268,6.6307554,-0.8412538,0.0
12.390801,6.677748,-0.84227335,0.0
12.35834,6.710744,-0.84228766,0.0
11.620856,6.3588276,-0.78115743,0.0
11.593392,6.3918233,-0.78117156,0.0
11.608162,6.4238176,-0.7831845,0.0
11.618701,6.4778085,-0.7862066,0.0
11.622242,6.5278,-0.78822726,0.0
11.612772,6.571794,-0.7892457,0.0
11.602316,6.6137877,-0.79026335,0.0
11.59685,6.6597805,-0.7912826,0.0
11.60462,6.688776,-0.79229456,0.0
11.611157,6.7417674,-0.79531646,0.0
11.581234,6.822756,-0.796351,0.0
11.59177,6.878747,-0.79937416,0.1
11.539304,6.897746,-0.7963833,0.14
11.482847,6.912746,-0.79339087,0.2
11.495612,6.9457407,-0.79540443,0.0
11.480154,6.985735,-0.7964216,0.0
10.588722,6.8917904,-0.73740244,0.09
10.600266,6.9467816,-0.7404254,0.0
10.446801,6.893797,-0.72840655,0.0
10.410099,6.9417915,-0.7284277,0.15
14.0318365,9.411251,-1.0523908,0.3
13.958374,9.426252,-1.0483993,0.36
13.861904,9.426257,-1.0424021,0.51
13.766441,9.4252615,-1.0364045,0.38
13.685211,9.401268,-1.0303965,0.5
13.594744,9.403273,-1.0253999,0.38
13.487281,9.39228,-1.0183983,0.52
13.412815,9.404282,-1.0144057,0.39
13.326357,9.406285,-1.0094091,0.41
13.225887,9.399291,-1.0034089,0.52
13.155432,9.411293,-0.9994162,0.4
13.078193,9.388301,-0.99340844,0.42
12.98273,9.382306,-0.98740864,0.43
12.899268,9.38431,-0.98341197,0.42
12.807803,9.380316,-0.9774128,0.43
12.72934,9.38532,-0.97341734,0.43
12.642873,9.384324,-0.96741945,0.44
12.58364,9.371329,-0.9634155,0.44
12.491177,9.364336,-0.95841515,0.43
12.410716,9.365339,-0.95341796,0.45
12.334254,9.369344,-0.9494219,0.44
12.249785,9.36735,-0.9444235,0.43
12.168324,9.366354,-0.93942547,0.45
12.087865,9.365358,-0.9344274,0.46
12.02863,9.350365,-0.93042254,0.47
11.956165,9.355369,-0.9264269,0.45
11.866702,9.3463745,-0.92042553,0.47
11.792233,9.349379,-0.91642904,0.48
11.718768,9.352383,-0.9124325,0.48
11.637303,9.348389,-0.9074331,0.5
11.560842,9.347394,-0.9034349,0.48
11.505607,9.333399,-0.8994304,0.5
11.434148,9.335403,-0.89543337,0.49
11.362678,9.3384075,-0.8914367,0.48
11.285219,9.334414,-0.8874372,0.51
11.20775,9.331419,-0.8824381,0.49
11.142285,9.337422,-0.87944263,0.5
11.074828,9.340426,-0.87544584,0.51
11.01359,9.319433,-0.8714384,0.51
10.9471245,9.323438,-0.86744213,0.51
10.876661,9.323442,-0.8634441,0.51
10.8072,9.323447,-0.85944605,0.5
10.744739,9.329452,-0.85645044,0.52
10.662275,9.317459,-0.8514475,0.52
10.597809,9.321463,-0.8474511,0.51
10.549572,9.309468,-0.8444472,0.52
10.477113,9.304474,-0.84044707,0.52
10.400646,9.296481,-0.8354457,0.54
10.351178,9.312483,-0.833454,0.54
10.287719,9.314487,-0.8304567,0.54
10.216253,9.309493,-0.8264565,0.5
10.156793,9.314497,-0.8234603,0.54
10.093557,9.286506,-0.81844974,0.53
10.036098,9.292509,-0.8154539,0.52
9.980634,9.300513,-0.8134589,0.53
9.737147,9.133553,-0.79139227,0.51
9.691684,9.149554,-0.7904005,0.66
9.686228,9.202549,-0.7924238,0.57
9.744012,9.285534,-0.7994587,0.5
9.676539,9.28154,-0.79645866,0.52
9.612079,9.278546,-0.792459,0.52
9.550612,9.278551,-0.78946066,0.54
9.485146,9.274558,-0.7854606,0.55
9.431688,9.280561,-0.78346455,0.54
9.372223,9.281567,-0.78046656,0.55
9.3229885,9.262573,-0.77645946,0.55
9.265524,9.264578,-0.77346176,0.56
9.199057,9.257585,-0.7694603,0.54
9.141603,9.25759,-0.7664618,0.55
9.08613,9.261594,-0.76446486,0.59
9.034673,9.267599,-0.76146877,0.56
8.983439,9.244607,-0.75745994,0.5
8.93797,9.257608,-0.7564667,0.55
8.893509,9.270613,-0.7544734,0.37
8.849053,9.282616,-0.7534797,0.46
8.834596,9.3266115,-0.7544993,0.39
8.808125,9.359611,-0.7555143,0.45
8.801674,9.411607,-0.75753725,0.52
8.821448,9.462599,-0.7615591,0.5
8.82999,9.532592,-0.7655896,0.51
8.965559,9.738556,-0.7836766,0.5
8.741072,9.557597,-0.7626025,0.39
8.679607,9.551604,-0.75960124,0.41
8.622144,9.54961,-0.7566017,0.41
8.572678,9.556614,-0.75460577,0.38
8.550446,9.562616,-0.7536089,0.48
8.629001,9.711594,-0.7656724,0.27
9.039613,10.233499,-0.8148919,0.35
9.083164,10.348483,-0.82294136,0.49
9.086707,10.419476,-0.8269724,0.59
9.079261,10.476471,-0.8299976,0.64
9.0738,10.5384655,-0.8330249,0.66
9.093575,10.595458,-0.8380495,0.64
9.084127,10.651453,-0.8400743,0.66
9.08067,10.716448,-0.84410286,0.66
9.070214,10.773443,-0.8461281,0.65
9.068759,10.841437,-0.850158,0.65
9.066307,10.90843,-0.8541874,0.65
9.059853,10.971425,-0.85721517,0.65
9.074636,11.023418,-0.86123765,0.64
9.070183,11.089413,-0.86426675,0.66
9.068726,11.160406,-0.86829793,0.65
9.059271,11.221402,-0.87132484,0.64
9.054815,11.289397,-0.8753547,0.66
9.050368,11.356391,-0.8793842,0.65
9.048912,11.429384,-0.88341624,0.63
9.055692,11.47438,-0.88643587,0.63
9.0502405,11.542374,-0.88946575,0.64
9.04679,11.613368,-0.89349693,0.63
9.041333,11.683363,-0.8975277,0.64
9.03189,11.746358,-0.9005555,0.63
9.027434,11.818352,-0.9045871,0.61
9.025984,11.894345,-0.9096204,0.62
9.039763,11.951339,-0.9136451,0.62
9.029311,12.016334,-0.9166738,0.62
9.019859,12.083329,-0.9207033,0.63
9.021417,12.164323,-0.9257387,0.6
9.010958,12.232318,-0.92876863,0.61
9.009505,12.312311,-0.9338037,0.6
9.017285,12.363306,-0.9368258,0.58
9.016835,12.445298,-0.9418617,0.59
9.015393,12.525292,-0.9468967,0.58
9.006944,12.597287,-0.9509283,0.58
8.999495,12.671283,-0.95496076,0.59
8.9970455,12.753276,-0.95999664,0.56
8.987594,12.826271,-0.96402866,0.59
9.0043745,12.893264,-0.9680577,0.58
8.993926,12.965259,-0.9720893,0.57
8.990478,13.048253,-0.9771255,0.58
8.985028,13.129247,-0.9821609,0.54
8.984586,13.217239,-0.98719937,0.57
8.97214,13.288236,-0.9912305,0.55
8.989921,13.360229,-0.99626166,0.56
8.983472,13.442223,-1.0012975,0.56
8.978022,13.527216,-1.0063347,0.55
8.970579,13.608211,-1.01137,0.54
8.965136,13.693205,-1.016407,0.54
8.957686,13.7772,-1.0204437,0.55
8.951244,13.862194,-1.0254807,0.54
8.965023,13.932187,-1.030511,0.54
8.958577,14.019181,-1.0355489,0.53
8.952136,14.106174,-1.0415869,0.53
8.949689,14.202168,-1.0466286,0.52
8.93324,14.276165,-1.0506607,0.52
8.9308,14.372158,-1.0567025,0.52
8.92236,14.459154,-1.0617404,0.52
8.915912,14.552147,-1.0677809,0.51
8.933694,14.633139,-1.0738157,0.51
8.927254,14.726132,-1.0788561,0.48
8.918812,14.817128,-1.0848956,0.46
8.916371,14.91912,-1.0909399,0.44
8.901928,15.002116,-1.0959759,0.45
8.889482,15.090113,-1.101014,0.52
8.909275,15.176104,-1.1070511,0.36
8.895824,15.2651,-1.1120896,0.46
8.8833885,15.353095,-1.1171278,0.41
8.867943,15.439092,-1.1221651,0.41
8.846498,15.51509,-1.1261979,0.46
8.84206,15.621083,-1.1332436,0.3
8.82061,15.700081,-1.1372778,0.48
8.843404,15.7970705,-1.1443195,0.32
8.829959,15.891067,-1.1503602,0.44
8.825523,16.00106,-1.1574075,0.36
8.808082,16.089056,-1.1624454,0.57
8.810645,16.215048,-1.1704997,0.34
8.798207,16.314043,-1.1765423,0.47
8.795774,16.432037,-1.184593,0.36
8.806562,16.51403,-1.1896282,0.47
8.802125,16.632023,-1.197679,0.38
8.784682,16.72702,-1.2027197,0.52
8.790258,16.864008,-1.2127786,0.34
8.773818,16.963007,-1.217821,0.45
8.763377,17.076,-1.2248695,0.41
8.755947,17.192995,-1.2329195,0.43
8.773737,17.294987,-1.2399634,0.44
8.766303,17.415977,-1.2480152,0.41
8.760874,17.540972,-1.2560686,0.41
8.752437,17.663967,-1.2641212,0.41
8.743008,17.78396,-1.2711725,0.4
8.736573,17.913954,-1.2802279,0.4
8.727146,18.036947,-1.2872803,0.4
8.741937,18.13994,-1.2953244,0.39
8.734507,18.270933,-1.3033804,0.45
8.725079,18.398926,-1.3114349,0.38
8.715646,18.52992,-1.3204905,0.44
8.709221,18.666914,-1.3295488,0.36
8.697787,18.797909,-1.3376045,0.43
8.69136,18.939901,-1.3466648,0.36
8.715161,19.06889,-1.35672,0.43
8.701732,19.198885,-1.3647751,0.35
8.6873045,19.32788,-1.3728297,0.43
8.67988,19.473873,-1.3828917,0.4
8.670456,19.617868,-1.3919525,0.4
8.660029,19.761862,-1.4020135,0.41
8.681833,19.89485,-1.4110702,0.38
8.675409,20.051844,-1.4221367,0.39
8.667989,20.207834,-1.4322027,0.38
8.65256,20.348831,-1.441262,0.38
8.643145,20.502823,-1.4513268,0.45
8.60771,20.599825,-1.4573672,0.52
2.4991846,6.282793,-0.30317593,0.2
2.4759462,6.2557993,-0.3011635,0.18
2.4334855,6.2088113,-0.29714167,0.23
2.4120164,6.213817,-0.29614225,0.17
2.3725476,6.1738276,-0.29212338,0.25
2.3490734,6.1738334,-0.2921217,0.14
2.3126063,6.139844,-0.28810543,0.35
2.281123,6.1198525,-0.28609508,0.11
2.2708972,6.1218553,-0.28609514,0.16
2.2384355,6.0958643,-0.28408223,0.3
2.2149663,6.09387,-0.28307965,0.0
2.1914954,6.0918765,-0.28207704,0.14
2.171039,6.095882,-0.28207707,0.28
2.1465602,6.0918884,-0.28107354,0.11
2.1311073,6.108892,-0.28207913,0.17
2.1128714,6.0898976,-0.28007004,0.12
2.101404,6.1198993,-0.28208113,0.16
2.0749404,6.107907,-0.28007412,0.21
2.0614793,6.1319103,-0.28108266,0.16
2.0409985,6.1389155,-0.28108373,0.17
2.025543,6.156919,-0.2820896,0.1
2.0050776,6.161925,-0.28208983,0.09
2.0098555,6.206922,-0.28510827,0.12
1.98438,6.1989293,-0.28410286,0.25
1.9689162,6.2189326,-0.28510946,0.16
1.9554543,6.2449355,-0.28711867,0.23
1.9409951,6.2679396,-0.2881266,0.1
1.9245303,6.285943,-0.28913227,0.15
1.9160672,6.3289447,-0.29214868,0.09
1.9188546,6.3699427,-0.29516536,0.14
1.9053822,6.399946,-0.29617608,0.25
1.8989292,6.449946,-0.3001955,0.15
2.6564987,9.021664,-0.49829713,0.3
2.6300397,9.03767,-0.49930146,0.58
2.5935798,9.019681,-0.4972912,0.58
2.5783415,9.022684,-0.49729118,0.58
2.546872,9.023693,-0.49628896,0.56
2.5144117,9.018702,-0.49528423,0.55
2.48195,9.013711,-0.4942794,0.55
2.4544835,9.027718,-0.49528268,0.54
2.4180171,9.008728,-0.4932718,0.58
2.3895557,9.0177355,-0.4932729,0.56
2.3743198,9.01974,-0.49227232,0.54
2.3398468,9.00875,-0.49126476,0.57
2.30839,9.004759,-0.4902602,0.56
2.2809265,9.017766,-0.4902629,0.55
2.2514677,9.021774,-0.4902617,0.57
2.2179892,9.014784,-0.4892557,0.58
2.200759,9.006789,-0.48825082,0.58
2.1682897,9.000799,-0.4872452,0.59
2.1388319,9.003806,-0.4872435,0.57
2.1103668,9.0128145,-0.48724425,0.57
2.0759,8.996825,-0.48523432,0.55
2.0464365,9.0008335,-0.4852329,0.56
2.016962,9.007842,-0.48523262,0.58
2.0007315,9.002847,-0.48422894,0.55
1.9692638,8.998856,-0.48322397,0.57
1.9398054,9.000865,-0.4832216,0.55
1.9093409,8.999873,-0.48321787,0.55
1.8778801,8.992883,-0.48221162,0.56
1.8474141,8.991892,-0.48120782,0.56
1.8179401,8.997901,-0.4812069,0.57
1.7987067,8.977907,-0.47919673,0.57
1.77325,8.997914,-0.48020178,0.54
1.7417846,8.990925,-0.47919536,0.55
1.7093052,8.982934,-0.4781883,0.57
1.6818488,8.992943,-0.47818905,0.56
1.6503832,8.984952,-0.4771821,0.55
1.618916,8.976963,-0.47617504,0.57
1.6046853,8.979966,-0.4761745,0.55
1.5742207,8.975976,-0.47616914,0.55
1.5447516,8.978986,-0.47516665,0.54
1.5142908,8.972995,-0.47516042,0.55
1.4838185,8.9710045,-0.4741557,0.54
1.4553531,8.978013,-0.4741548,0.54
1.4248978,8.969024,-0.47314724,0.53
1.4096605,8.968029,-0.47314486,0.53
1.3811945,8.975038,-0.47314388,0.54
1.3497205,8.966047,-0.47213608,0.53
1.3192561,8.959057,-0.47112912,0.54
1.2918006,8.968067,-0.47112894,0.51
1.262332,8.969076,-0.47112527,0.52
1.2318676,8.961086,-0.47011784,0.52
1.2176306,8.96609,-0.47011784,0.52
1.1871691,8.956101,-0.4691095,0.56
1.1607012,8.978108,-0.47111446,0.64
1.1222214,8.915123,-0.46608382,0.3
1.0937601,8.918133,-0.46508086,0.3
1.0632879,8.910143,-0.46507317,0.28
1.035836,8.916152,-0.46507144,0.25
1.0205957,8.914157,-0.46406832,0.41
0.992135,8.916167,-0.4640648,0.3
0.96266687,8.913177,-0.46405908,0.3
0.93319666,8.911187,-0.46305376,0.32
0.90474194,8.909197,-0.46304852,0.3
0.875272,8.906207,-0.46304268,0.29
0.8458032,8.902218,-0.46203637,0.32
0.830565,8.8972225,-0.46203193,0.31
0.803112,8.903232,-0.4620299,0.32
0.7726357,8.892242,-0.46102056,0.32
0.7441736,8.893252,-0.46001625,0.31
0.71570206,8.900262,-0.46101433,0.34
0.6862421,8.887273,-0.4600042,0.3
0.6577734,8.892283,-0.46000138,0.36
0.643541,8.893288,-0.45999935,0.3
0.6150827,8.890299,-0.4589933,0.34
0.58561534,8.880309,-0.45798424,0.32
0.5601525,8.923318,-0.46099687,0.16
0.5326902,8.939326,-0.46199837,0.62
0.50321865,8.933337,-0.46199074,0.83
0.4879878,8.917343,-0.45998168,0.82
0.4605226,8.937353,-0.4619847,0.5
0.43105522,8.925364,-0.46097457,0.47
0.40158474,8.915375,-0.4599652,0.72
0.37111866,8.877387,-0.45694447,0.53
0.3346235,8.739404,-0.44688278,0.42
0.30514067,8.729415,-0.44587323,0.19
0.28052887,9.056415,-0.46999863,0.58
0.24101669,8.829436,-0.45290074,0.24
0.21254742,8.830447,-0.4528956,0.2
0.18407856,8.830458,-0.45289004,0.41
0.15560918,8.831469,-0.45288482,0.21
0.12714042,8.830479,-0.45287877,0.16
0.09968914,8.827489,-0.45187208,0.46
0.2145757,12.767337,-0.74446476,0.12
0.17310335,12.762352,-0.74345493,0.36
0.1326419,12.765367,-0.74344844,0.34
0.0921803,12.764381,-0.7434403,0.33
0.051719163,12.773396,-0.744436,0.37
0.011256174,12.758411,-0.74342215,0.34
-0.0089735575,12.766418,-0.7434214,0.34
-0.049434703,12.771433,-0.7444154,0.33
-0.08989606,12.77045,-0.74340695,0.31
-0.13035756,12.772464,-0.7443996,0.26
-0.17081931,12.770479,-0.7433906,0.25
-0.2122982,12.752495,-0.74237496,0.21
-0.25275493,12.76851,-0.74337304,0.3
-0.27299485,12.744518,-0.7423592,0.16
-0.29800528,10.895583,-0.6046146,0.38
-0.35391107,12.764548,-0.7433503,0.28
-0.39437544,12.759564,-0.7433398,0.29
-0.43483523,12.763579,-0.74333274,0.32
-0.47530526,12.748596,-0.742318,0.33
-0.51576936,12.745611,-0.74230796,0.24
-0.53599805,12.749619,-0.74230516,0.31
-0.5764649,12.742635,-0.7422935,0.3
-0.61692935,12.739652,-0.74228334,0.3
-0.6573842,12.749666,-0.74227834,0.32
-0.69785,12.744683,-0.7422672,0.3
-0.73831606,12.739699,-0.74225605,0.32
-0.77778155,12.721715,-0.74123985,0.3
-0.7990099,12.738723,-0.74224174,0.33
-0.8394773,12.732739,-0.74223,0.29
-0.87894434,12.714755,-0.7412136,0.31
-0.9204125,12.720772,-0.7412063,0.31
-0.9608709,12.724788,-0.74219835,0.32
-1.0003356,12.710804,-0.74118334,0.3
-1.0417976,12.721821,-0.74217784,0.34
-1.0620335,12.716829,-0.74117094,0.31
-1.1034944,12.727846,-0.7421653,0.32
-1.1429583,12.715862,-0.74215084,0.34
-1.1834277,12.708879,-0.7411381,0.26
-1.2248774,12.727896,-0.7431355,0.0
-1.2633594,12.692912,-0.74111176,0.12
-1.4293357,14.173931,-0.8506689,0.2
-1.4555622,14.20794,-0.8536761,0.41
-1.4990294,14.187959,-0.85265714,0.24
-1.5424923,14.171976,-0.8516397,0.19
-1.6009189,14.300997,-0.8616771,0.25
-1.6752789,14.594017,-0.8837768,0.0
-1.6689115,14.076033,-0.8455685,0.07
-1.6784836,13.740049,-0.82042956,0.0
-1.6837645,13.585055,-0.8093653,0.0
-1.7701067,13.967078,-0.83849776,0.0
-1.4785266,11.011063,-0.6183733,0.0
-1.5179908,11.039079,-0.62037385,0.0
-1.5534419,11.045093,-0.6213665,0.0
-1.5859145,11.019108,-0.61934686,0.0
-1.6243768,11.0391245,-0.62134427,0.0
-1.642616,11.038133,-0.6213387,0.0
-1.6780771,11.038148,-0.6213287,0.0
-1.6945791,10.89916,-0.61126715,0.06
-1.7210729,10.831175,-0.6072317,0.11
-1.8393503,11.419204,-0.6514389,0.0
-1.879795,11.44822,-0.6534391,0.0
-1.936494,11.452246,-0.65442437,0.0
-2.2030168,12.686314,-0.74785405,0.15
-2.246475,12.700333,-0.74984705,0.48
-2.2879372,12.70135,-0.74983525,0.26
-2.3303947,12.70937,-0.75082594,0.0
-4.6577992,26.552835,-1.7908463,0.0
-4.7432523,26.55087,-1.7918214,0.0
-4.8307114,26.551907,-1.7927969,0.0
-4.9111733,26.521944,-1.7917613,0.0
-2.5569434,12.699471,-0.7527532,0.27
-2.596416,12.68549,-0.7527352,0.22
-2.6176496,12.6865,-0.75272906,0.27
-2.6591053,12.688519,-0.75371695,0.24
-2.700575,12.684537,-0.7537022,0.26
-2.7410386,12.6785555,-0.75368696,0.12
-2.777512,12.651573,-0.75266415,0.38
-2.8209782,12.657594,-0.75365275,0.4
-2.0537515,8.752418,-0.4592659,0.26
-2.067964,8.756425,-0.4592628,0.25
-2.096449,8.748438,-0.45924982,0.26
-2.9890993,12.561676,-0.7485579,0.33
-2.978638,12.328681,-0.7324633,0.13
-2.7065864,10.936622,-0.62696743,0.22
-2.7061026,10.775629,-0.6148996,0.25
-2.7223384,10.767636,-0.61489064,0.4
-2.7577953,10.767653,-0.6158785,0.41
-2.7952638,10.771671,-0.61686736,0.4
-2.8337228,10.781689,-0.61785835,0.41
-2.8662012,10.763706,-0.6168394,0.39
-2.9056542,10.778725,-0.618832,0.33
-2.9391243,10.766741,-0.6188151,0.43
-2.9603488,10.77975,-0.6198132,0.35
-2.9938223,10.7667675,-0.6197958,0.46
-3.0302901,10.765785,-0.6197824,0.38
-3.064758,10.757802,-0.6197666,0.47
-3.1052127,10.773822,-0.62175894,0.38
-3.1376882,10.756838,-0.6217399,0.45
-3.177142,10.768857,-0.62273073,0.29
-3.1933777,10.760864,-0.6227213,0.59
-3.2308514,10.760883,-0.6237076,0.33
-2.719983,8.808742,-0.47405252,0.23
-2.751453,8.811757,-0.47504193,0.12
-3.3697178,10.730954,-0.62364304,0.53
-3.4261556,10.797977,-0.62965095,0.34
-3.4413903,10.786985,-0.6296404,0.41
-3.4798653,10.788005,-0.6306263,0.37
-3.5173225,10.790024,-0.6306129,0.39
-3.5557957,10.791042,-0.63159865,0.4
-3.5942516,10.7960615,-0.633586,0.44
-3.6297276,10.78708,-0.63356835,0.27
-3.6661816,10.786099,-0.63355374,0.29
-3.683424,10.779108,-0.63354397,0.35
-3.7228928,10.783128,-0.6345303,0.37
-3.7623475,10.790147,-0.6365179,0.27
-3.7948196,10.773165,-0.63549757,0.54
-3.8322875,10.771184,-0.63648176,0.16
-4.3652153,12.246362,-0.7529229,0.4
-4.3844533,12.238373,-0.75191176,0.54
-4.427919,12.238395,-0.7528944,0.33
-4.460388,12.208413,-0.7518681,0.69
-4.6017513,12.489468,-0.77493626,0.0
-3.345543,8.789063,-0.48579583,0.16
-3.347053,8.70207,-0.47975603,0.26
-3.3695138,8.680084,-0.47873673,0.27
-3.3927405,8.701095,-0.48073643,0.27
-3.4192212,8.68611,-0.4807185,0.13
-4.8852644,12.592606,-0.7888667,0.23
-4.9267344,12.581628,-0.78984463,0.39
-4.9732003,12.583652,-0.7908262,0.38
-5.0146604,12.574673,-0.7908048,0.37
-5.060123,12.574697,-0.7917857,0.38
-5.1065946,12.57472,-0.7937662,0.38
-5.1268253,12.568731,-0.7937549,0.38
-5.1752934,12.573757,-0.79473656,0.38
-5.2187586,12.56778,-0.79571533,0.38
-5.2662234,12.570805,-0.79769635,0.38
-5.311684,12.569829,-0.7986764,0.38
-5.351155,12.552851,-0.7986515,0.38
-5.3763804,12.558863,-0.79964334,0.38
-5.42385,12.559889,-0.8006231,0.37
-5.4673147,12.552912,-0.80160093,0.37
-5.515778,12.556937,-0.8025815,0.36
-5.5602465,12.5509615,-0.8035591,0.36
-5.606706,12.550986,-0.80553854,0.36
-5.6521735,12.547009,-0.80651647,0.36
-5.678399,12.554024,-0.807508,0.36
-5.7238693,12.549047,-0.8084853,0.36
-5.767337,12.540072,-0.8084616,0.36
-5.8168025,12.544099,-0.81044114,0.37
-5.825293,12.45811,-0.80539703,0.0
-4.306567,8.900572,-0.51942194,0.0
-6.0783525,12.54124,-0.81832,0.35
-6.1268177,12.541266,-0.8192975,0.36
-6.1752825,12.541292,-0.82127494,0.36
-6.2257495,12.54432,-0.82325274,0.36
-6.2682133,12.532344,-0.82322705,0.36
-6.2974467,12.541359,-0.8252176,0.36
-6.34691,12.542386,-0.8261947,0.36
-6.3903766,12.53141,-0.82716876,0.36
-6.441837,12.536438,-0.8291467,0.29
-6.4982967,12.550468,-0.8321264,0.53
-6.4997973,12.454477,-0.82507944,0.31
-6.496304,12.349484,-0.8180304,0.3
-6.4705844,12.248479,-0.8109941,0.28
-6.467081,12.147486,-0.8039468,0.29
-6.468584,12.055495,-0.79790145,0.29
-6.4680953,11.959503,-0.791855,0.29
-6.469588,11.871512,-0.78581125,0.3
-6.4651,11.770519,-0.77876407,0.29
-6.4705925,11.691529,-0.77372265,0.31
-6.450859,11.609526,-0.76769215,0.3
-6.448362,11.516532,-0.76164764,0.31
-6.453852,11.440543,-0.7566074,0.3
-6.4493523,11.34655,-0.7505632,0.31
-6.447865,11.256557,-0.7445193,0.31
-6.449354,11.176565,-0.73947877,0.32
-6.4518523,11.097574,-0.7344381,0.31
-6.430122,11.016569,-0.7284088,0.27
-6.4246154,10.926576,-0.72236663,0.2
-6.39914,10.799573,-0.7133161,0.51
-6.445599,10.802599,-0.7152935,0.0
-5.653648,9.344292,-0.5919697,0.0
-5.6521363,9.274299,-0.587935,0.0
-5.6556306,9.212307,-0.5839016,0.0
-5.65287,9.175309,-0.58188415,0.0
-5.653373,9.108316,-0.57684964,0.0
-5.662853,9.059327,-0.5738196,0.0
-5.6653523,8.997335,-0.5707864,0.0
-5.659843,8.924339,-0.5657518,0.0
-5.6693196,8.877351,-0.5627224,0.0
-5.5721254,8.623322,-0.5426434,0.21
-5.598598,8.605339,-0.5426197,0.18
-5.6430593,8.616364,-0.5456012,0.34
-5.665546,8.59038,-0.54457533,0.17
-5.8723974,8.796479,-0.5655696,0.58
-5.7529607,8.548436,-0.5455051,0.23
-5.748207,8.511438,-0.5424882,0.22
-5.7786794,8.499457,-0.54346496,0.23
-5.871115,8.582503,-0.5514574,0.38
-6.0435014,8.786581,-0.57146925,0.0
-5.988021,8.642565,-0.56042385,0.09
-6.030491,8.646589,-0.56240207,0.0
-6.093197,8.650627,-0.56536883,0.17
-6.0377107,8.510611,-0.55432516,0.0
-6.170121,8.647674,-0.5673235,0.0
-6.2195964,8.659701,-0.5703018,0.0
-6.299527,8.65875,-0.5732555,0.0
-6.3502345,8.643782,-0.5752181,0.25
-6.3947,8.6488085,-0.57719517,0.16
-6.413181,8.616823,-0.5761669,0.21
-6.4626393,8.628852,-0.5781447,0.17
-6.5960436,8.63993,-0.5850727,0.43
-6.6282654,8.655949,-0.58706266,0.73
-6.667737,8.651972,-0.5890371,0.71
-6.7042165,8.642996,-0.5900105,0.7
-6.7456717,8.643022,-0.590986,0.69
-6.795144,8.651051,-0.593961,0.68
-6.8306074,8.642073,-0.5949349,0.71
-6.8740788,8.642098,-0.59690887,0.71
-6.9053125,8.654117,-0.59889686,0.68
-6.94478,8.649141,-0.6008704,0.68
-6.9842453,8.644167,-0.6018438,0.66
-7.0307145,8.647194,-0.6038174,0.67
-7.067198,8.636218,-0.6047891,0.67
-7.1066585,8.631243,-0.60676223,0.68
-7.1388845,8.644261,-0.60875005,0.68
-7.177357,8.636286,-0.609722,0.71
-7.2208376,8.633312,-0.6116937,0.66
-7.2603,8.627338,-0.612666,0.7
-7.2957726,8.615361,-0.6136373,0.66
-7.34523,8.62139,-0.6166103,0.7
-7.390705,8.6204195,-0.6185816,0.69
-7.4109383,8.617432,-0.61956733,0.68
-7.4574113,8.617461,-0.62153846,0.67
-7.5018787,8.615489,-0.62350965,0.68
-7.5403466,8.606514,-0.62448037,0.71
-7.582826,8.60054,-0.62645024,0.7
-7.633285,8.605572,-0.62842155,0.7
-7.6757517,8.600598,-0.63039184,0.68
-7.703987,8.605615,-0.632377,0.66
-7.748461,8.601644,-0.63434654,0.58
-7.7949343,8.599673,-0.636316,0.51
-7.8453903,8.6037035,-0.6382863,0.48
-7.895862,8.605735,-0.6412554,0.5
-7.9363327,8.596762,-0.6422242,0.55
-7.989801,8.601794,-0.645193,0.55
-8.028031,8.6168165,-0.64817744,0.57
-8.067505,8.605842,-0.6491455,0.55
-8.113972,8.602871,-0.6511138,0.56
-8.163437,8.602901,-0.6540819,0.56
-8.207916,8.595931,-0.6560489,0.58
-8.256376,8.594962,-0.65801686,0.59
-8.300851,8.587991,-0.6599837,0.59
-8.332086,8.594009,-0.661967,0.59
-8.385559,8.596042,-0.6649334,0.57
-8.432028,8.591073,-0.66689986,0.57
-8.475494,8.583101,-0.6678665,0.56
