X,Y,Z,Intensity
3.3059716,-2.5609667,-1.3441365,0.0
3.3063672,-2.5449677,-1.3411375,0.0
3.28575,-2.5119674,-1.3281381,0.0
3.3014686,-2.5169685,-1.334139,0.09
3.3288817,-2.5229707,-1.3431407,0.16
3.3352826,-2.511972,-1.342142,0.18
3.3387318,-2.4999728,-1.3411431,0.17
3.337102,-2.4819736,-1.3371444,0.0
3.3475337,-2.4749749,-1.3381457,0.0
3.3642385,-2.4799762,-1.3441467,0.0
3.3926482,-2.4859784,-1.3541484,0.0
3.4060419,-2.4799798,-1.35715,0.0
3.4254556,-2.4789815,-1.3621515,0.0
3.4468923,-2.479983,-1.369153,0.0
3.4422715,-2.4599838,-1.3631543,0.0
3.4656963,-2.4619853,-1.371156,0.0
3.4754279,-2.4619863,-1.3731567,0.0
3.5118067,-2.471989,-1.3861586,0.0
3.5382414,-2.475991,-1.3951602,0.0
3.5456347,-2.4649918,-1.3951617,0.0
3.5480492,-2.4509928,-1.3931633,0.0
3.5824714,-2.4599953,-1.405165,0.03
3.5888584,-2.447996,-1.4051666,0.04
3.6305845,-2.4699986,-1.4211676,0.0
3.6189985,-2.4459987,-1.413169,0.0
3.6353905,-2.441,-1.4171706,0.0
3.6488242,-2.4350011,-1.4201723,0.0
3.7582319,-2.494007,-1.4651741,0.0
4.226469,-2.791031,-1.6641767,0.21
4.2458887,-2.7860324,-1.669178,0.31
4.252302,-2.7720332,-1.6681794,0.31
4.257705,-2.7570338,-1.6671807,0.29
4.261086,-2.7400343,-1.6651822,0.3
4.2704988,-2.7280354,-1.6651837,0.29
4.284904,-2.7190366,-1.6681851,0.27
4.2856297,-2.7110367,-1.6671858,0.28
4.3070517,-2.7070382,-1.6731873,0.29
4.318459,-2.6960392,-1.6741887,0.29
4.3308787,-2.6860402,-1.6761903,0.28
4.3242683,-2.6630402,-1.670192,0.3
4.3386793,-2.654041,-1.6731936,0.27
4.353093,-2.6450422,-1.6751952,0.28
4.364791,-2.6430428,-1.679196,0.28
4.382212,-2.6360438,-1.6831976,0.28
4.370597,-2.6100435,-1.6751996,0.29
4.386027,-2.6020448,-1.6782013,0.29
4.404433,-2.5950458,-1.683203,0.3
4.413854,-2.5830467,-1.6832048,0.31
4.4165397,-2.5750468,-1.6832057,0.3
4.4219413,-2.5600474,-1.6822076,0.3
4.440354,-2.5530484,-1.6872094,0.3
4.4477835,-2.5400488,-1.6872113,0.28
4.4521723,-2.5240493,-1.6852133,0.29
4.4645724,-2.5130503,-1.6872153,0.3
4.4809976,-2.5050511,-1.6922172,0.28
4.486692,-2.4990516,-1.6922182,0.28
4.492128,-2.4850516,-1.6922202,0.28
4.4995265,-2.4710522,-1.6922224,0.28
4.511932,-2.460053,-1.6942246,0.29
4.5273175,-2.450054,-1.6972266,0.29
4.5287604,-2.4340541,-1.6952288,0.29
4.5331483,-2.4180543,-1.6942313,0.3
4.5478487,-2.4170551,-1.6982322,0.29
4.5552497,-2.4030557,-1.6982344,0.28
4.558688,-2.3880558,-1.6972367,0.29
4.579092,-2.3810568,-1.7022388,0.29
4.575488,-2.3610568,-1.6982415,0.3
4.5788918,-2.3450568,-1.697244,0.3
4.600613,-2.348058,-1.7042449,0.29
4.596023,-2.3280578,-1.7002475,0.28
4.5994267,-2.312058,-1.6982502,0.28
4.605845,-2.2980583,-1.6982527,0.29
4.622261,-2.289059,-1.7022549,0.27
4.627631,-2.273059,-1.7022578,0.27
4.6340504,-2.2590592,-1.7022603,0.29
4.6307673,-2.2490592,-1.6992618,0.28
4.645188,-2.23906,-1.7022642,0.18
4.639569,-2.2180593,-1.6982673,0.27
4.6559925,-2.2090602,-1.7022698,0.24
4.6693997,-2.1980605,-1.7042725,0.18
4.6738186,-2.1830606,-1.7042754,0.27
4.711217,-2.183062,-1.7162775,0.19
4.6849246,-2.162061,-1.7042795,0.13
4.703325,-2.1530619,-1.7092823,0.21
4.7177234,-2.1420622,-1.712285,0.17
4.7101603,-2.1220617,-1.7072881,0.26
4.750566,-2.123063,-1.7212903,0.18
4.725957,-2.0940623,-1.7082942,0.23
4.757373,-2.0910633,-1.7192966,0.23
4.7710624,-2.0880637,-1.723298,0.26
4.781497,-2.0760639,-1.7253007,0.25
4.8189044,-2.0750651,-1.7373031,0.21
4.8363094,-2.0650656,-1.742306,0.31
4.8517127,-2.054066,-1.745309,0.35
4.836126,-2.030065,-1.7373128,0.29
4.8478208,-2.0260656,-1.7403142,0.29
4.855239,-2.0120656,-1.7413174,0.27
4.8556547,-1.9950653,-1.7393208,0.3
4.863073,-1.9810653,-1.7403241,0.29
4.8634534,-1.9630653,-1.7373278,0.28
4.867879,-1.948065,-1.7373312,0.27
4.87829,-1.9350652,-1.7393343,0.27
4.8789725,-1.9260651,-1.7383363,0.27
4.8843846,-1.9110651,-1.7383398,0.27
4.893777,-1.8970649,-1.7403433,0.18
4.8711867,-1.871064,-1.7293477,0.27
4.8815975,-1.858064,-1.7313511,0.18
4.8640003,-1.834063,-1.7223555,0.25
4.8864264,-1.8260635,-1.7293586,0.22
4.894118,-1.8200637,-1.7313603,0.17
4.885535,-1.8000631,-1.7253643,0.26
4.8959484,-1.7870631,-1.727368,0.21
4.899348,-1.771063,-1.7273719,0.16
4.901759,-1.7550626,-1.7263757,0.26
4.916159,-1.7430629,-1.7293794,0.24
4.9135637,-1.7250624,-1.7273836,0.19
4.9002733,-1.7120616,-1.721386,0.26
4.9206715,-1.702062,-1.7273895,0.18
4.9240694,-1.6860617,-1.7263936,0.25
4.921504,-1.6690613,-1.7233976,0.21
4.9379206,-1.6580614,-1.7284012,0.17
4.9273086,-1.6370606,-1.7224059,0.27
4.9470057,-1.635061,-1.7294075,0.18
4.933426,-1.6140603,-1.7224121,0.25
4.9618144,-1.6060606,-1.7314156,0.18
4.935238,-1.5810595,-1.7194207,0.25
4.959642,-1.5720599,-1.7274244,0.24
4.9570355,-1.5540594,-1.724429,0.17
4.95146,-1.5360587,-1.7214334,0.26
4.9591613,-1.5300586,-1.7234354,0.16
4.9585648,-1.5130582,-1.72144,0.27
4.970968,-1.5000582,-1.7244442,0.2
4.962385,-1.4810574,-1.7194488,0.23
4.9797726,-1.4690574,-1.7244531,0.18
4.976205,-1.452057,-1.7214576,0.25
4.988894,-1.4470571,-1.7254596,0.18
4.980306,-1.4280562,-1.7214645,0.24
4.998725,-1.4170564,-1.7264686,0.17
4.9751077,-1.3930552,-1.7164742,0.23
5.0045257,-1.3850555,-1.7254778,0.16
4.987939,-1.3640546,-1.7184831,0.23
4.9973445,-1.3500543,-1.7204876,0.17
4.9920373,-1.3400539,-1.7174903,0.24
5.008448,-1.3280537,-1.7224947,0.16
5.004872,-1.3110533,-1.7194996,0.23
5.0282574,-1.3000532,-1.727504,0.19
5.0076947,-1.2790523,-1.7185092,0.12
5.0371003,-1.2700524,-1.7275134,0.18
5.009488,-1.2460512,-1.7165194,0.21
5.0292025,-1.2430514,-1.7235211,0.17
5.010611,-1.2220504,-1.7155267,0.24
5.03599,-1.2110504,-1.7235314,0.19
5.024405,-1.1920496,-1.7175368,0.12
5.0368285,-1.1790494,-1.7215414,0.18
5.0282145,-1.1600485,-1.717547,0.11
5.036637,-1.1460482,-1.7195518,0.18
5.031354,-1.1370478,-1.7165544,0.11
5.052745,-1.1250477,-1.7235593,0.18
5.0371456,-1.1050467,-1.716565,0.12
5.0495386,-1.0910465,-1.7195702,0.17
5.0339704,-1.0720456,-1.7125757,0.05
5.036369,-1.0560449,-1.712581,0.16
5.0390925,-1.0490447,-1.7135835,0.11
5.0554953,-1.0360445,-1.7185885,0.19
5.0469036,-1.0180436,-1.7145941,0.11
5.056288,-1.0030432,-1.7175996,0.18
5.0557084,-0.9870426,-1.7156049,0.1
5.0540996,-0.970042,-1.7146107,0.19
5.0495095,-0.95304126,-1.7116163,0.21
5.0652184,-0.94804126,-1.7176187,0.16
5.0506225,-0.9290404,-1.7106246,0.06
5.06402,-0.91503996,-1.7156299,0.17
5.0644317,-0.89903927,-1.7146356,0.19
5.0578513,-0.88203865,-1.7106413,0.18
5.0652537,-0.8670381,-1.712647,0.09
5.0439467,-0.8550374,-1.7046504,0.0
5.03736,-0.8380366,-1.7016562,0.0
5.05378,-0.8250363,-1.7066616,0.0
5.0761685,-0.8120359,-1.7146671,0.0
5.050582,-0.79203486,-1.7046734,0.04
5.0649824,-0.77803445,-1.708679,0.04
5.080381,-0.76403403,-1.7136847,0.16
5.066092,-0.7540335,-1.7086879,0.11
5.0925064,-0.7420332,-1.7176932,0.15
5.0639224,-0.7220321,-1.7066997,0.05
5.084299,-0.7080318,-1.7127056,0.17
5.0817227,-0.692031,-1.7117115,0.11
5.0951405,-0.67803055,-1.7157171,0.18
5.0855236,-0.6600297,-1.7117237,0.11
5.0892477,-0.65302944,-1.7127265,0.18
5.0836463,-0.63602865,-1.7107327,0.11
5.094045,-0.62102807,-1.7137388,0.18
5.091466,-0.6050274,-1.712745,0.2
5.0728445,-0.5860265,-1.7047518,0.1
5.1032715,-0.5740261,-1.7157573,0.16
5.0896626,-0.5560252,-1.7107639,0.21
5.111391,-0.55102515,-1.7177665,0.16
5.070774,-0.530024,-1.7027737,0.06
5.109183,-0.51802367,-1.7167795,0.18
5.080585,-0.4990227,-1.7057863,0.11
5.0970073,-0.4850222,-1.7107923,0.18
5.0974135,-0.46902147,-1.7107987,0.11
5.102102,-0.46102113,-1.7128022,0.18
5.0895133,-0.4440203,-1.7078086,0.11
5.115911,-0.4300198,-1.717815,0.18
5.10033,-0.41301897,-1.7108215,0.23
5.117724,-0.39801836,-1.717828,0.19
5.084152,-0.3800174,-1.7048348,0.22
5.111558,-0.3660169,-1.7148411,0.16
5.0742474,-0.35501623,-1.700845,0.05
5.097667,-0.3410157,-1.7088512,0.17
5.0900545,-0.3240149,-1.7068583,0.2
5.0904584,-0.30801418,-1.706865,0.1
5.118877,-0.29401365,-1.7168713,0.17
5.1022816,-0.27701283,-1.7108783,0.12
5.1066794,-0.2610121,-1.7118851,0.18
5.1013927,-0.2530117,-1.7098885,0.12
5.104793,-0.23701099,-1.7108953,0.18
5.094179,-0.22001018,-1.7069025,0.11
5.110597,-0.20500952,-1.7129092,0.16
5.089995,-0.18800868,-1.7059163,0.21
5.0933948,-0.17200798,-1.7069234,0.16
5.087806,-0.15600722,-1.7049303,0.23
5.099533,-0.14900692,-1.7089335,0.16
5.089911,-0.13200611,-1.7059408,0.24
5.1143317,-0.11700545,-1.7149477,0.16
5.08972,-0.100004636,-1.705955,0.23
5.1021543,-0.08500395,-1.7109617,0.16
5.092565,-0.0690032,-1.7069689,0.23
5.0902686,-0.06100283,-1.7069725,0.16
5.0856752,-0.045002088,-1.7049797,0.23
5.1140733,-0.029001351,-1.7159868,0.19
5.092483,-0.013000604,-1.707994,0.12
4.903498,0.013000541,-1.688006,0.11
4.9198847,0.029001212,-1.6940135,0.18
4.902572,0.03700154,-1.6880172,0.11
4.910997,0.052002173,-1.6910243,0.19
4.8994136,0.06700279,-1.6870315,0.11
4.9338183,0.08300348,-1.7000389,0.18
4.893213,0.098004065,-1.6860461,0.12
4.9076085,0.11400475,-1.6910536,0.2
4.8903227,0.12100502,-1.685057,0.11
4.902718,0.1370057,-1.6900648,0.18
4.8991365,0.15200631,-1.689072,0.11
4.894553,0.16700692,-1.6880792,0.2
4.878953,0.18200752,-1.6820867,0.11
4.899328,0.19900827,-1.6910946,0.2
4.896747,0.21400888,-1.6901021,0.11
4.8924704,0.22100917,-1.6891055,0.18
4.8848405,0.2370098,-1.6871134,0.11
4.91725,0.25401062,-1.6991212,0.18
4.8696923,0.26601094,-1.682128,0.05
4.896056,0.28401178,-1.6921364,0.18
4.8834896,0.29801232,-1.6881435,0.11
4.8728876,0.31301287,-1.6841512,0.2
4.886575,0.3220133,-1.6901554,0.11
4.8999968,0.338014,-1.696163,0.18
4.8743906,0.35201445,-1.6871706,0.21
4.8738127,0.3670151,-1.6871783,0.1
4.885194,0.38401583,-1.6921865,0.18
4.877596,0.39901638,-1.6901942,0.11
4.870035,0.4130169,-1.6882014,0.2
4.856723,0.42001712,-1.6832054,0.11
4.8861313,0.438018,-1.6952138,0.16
4.865524,0.45201844,-1.6882215,0.21
4.8689237,0.4680191,-1.6902297,0.1
4.878347,0.48401982,-1.6942375,0.18
4.84974,0.49702016,-1.6842451,0.22
4.852444,0.50502044,-1.6862491,0.1
4.86886,0.52202123,-1.6932573,0.16
4.8502474,0.5360217,-1.6872653,0.21
4.856663,0.55202234,-1.6902734,0.16
4.8320584,0.56502265,-1.682281,0.06
4.859455,0.5840236,-1.6932899,0.16
4.847868,0.5980241,-1.6892977,0.11
4.86758,0.6080246,-1.6973022,0.18
4.830986,0.6190248,-1.6843094,0.22
4.8284,0.63402534,-1.6843175,0.1
4.8538046,0.6530262,-1.6953264,0.16
4.8142195,0.6630263,-1.6813334,0.05
4.8296137,0.6810271,-1.6883422,0.17
4.8283024,0.68902737,-1.6883466,0.1
4.836702,0.7060281,-1.6923554,0.19
4.8230944,0.7200285,-1.6883634,0.11
4.834514,0.73702925,-1.6933719,0.18
4.803919,0.7480294,-1.6833793,0.05
4.8163466,0.7650301,-1.6893879,0.17
4.8097377,0.78003055,-1.6873964,0.1
4.8204236,0.7900311,-1.6924013,0.18
4.804835,0.8030313,-1.6874092,0.1
4.8182383,0.82103217,-1.6934181,0.16
4.78565,0.83103216,-1.6824254,0.05
4.7880588,0.8470328,-1.6844339,0.17
4.7804394,0.8620332,-1.6834426,0.19
4.7998533,0.8810341,-1.6914519,0.1
4.807567,0.8900345,-1.6954565,0.16
4.782981,0.9010346,-1.687464,0.05
4.7783823,0.91603506,-1.6874725,0.16
4.779789,0.93203557,-1.6894813,0.05
4.7671685,0.9460359,-1.6854898,0.14
4.7605915,0.9600363,-1.684498,0.05
4.768977,0.978037,-1.6895075,0.16
4.7677045,0.98503727,-1.6895114,0.2
4.7560883,0.99903756,-1.68652,0.1
4.7564898,1.0150381,-1.687529,0.18
4.744909,1.0280384,-1.684537,0.11
4.7763014,1.0510395,-1.6985477,0.14
4.7377234,1.0580392,-1.6845545,0.05
4.752396,1.0700399,-1.6915601,0.17
4.74283,1.08304,-1.6895682,0.2
4.7292275,1.0960402,-1.6855764,0.1
4.7506285,1.1170412,-1.6955869,0.16
4.7410235,1.1310415,-1.6935955,0.22
4.737434,1.146042,-1.6936042,0.16
4.7108226,1.1560419,-1.6846122,0.06
4.7275267,1.1680424,-1.6916176,0.17
4.7079387,1.1790425,-1.6866255,0.11
4.742329,1.2040437,-1.7006371,0.17
4.712757,1.2120435,-1.6916441,0.05
4.699146,1.2250437,-1.6876527,0.17
4.696564,1.240044,-1.6886615,0.1
4.7129464,1.261045,-1.6966722,0.18
4.718671,1.2700453,-1.6996769,0.22
4.687064,1.2780448,-1.6896843,0.1
4.7034535,1.2990458,-1.697695,0.17
4.6918583,1.3120459,-1.6947036,0.21
4.6962786,1.3290464,-1.698713,0.16
4.6826982,1.3410465,-1.6947213,0.25
4.695094,1.3610471,-1.7017317,0.16
4.667771,1.3620467,-1.6917349,0.06
4.68118,1.3820475,-1.6987453,0.15
4.6705914,1.3950477,-1.696754,0.19
4.6649823,1.4100479,-1.6967633,0.04
4.6654034,1.4260483,-1.6987725,0.15
4.667811,1.4430487,-1.7017823,0.2
4.684488,1.4570494,-1.7097889,0.16
4.6459117,1.4610486,-1.6967952,0.06
4.6513186,1.4790492,-1.7008053,0.18
4.6407256,1.4920492,-1.698814,0.11
4.65011,1.5120499,-1.7038249,0.18
4.640528,1.5250499,-1.7028337,0.11
4.6669016,1.5510513,-1.7148461,0.18
4.6436276,1.5510507,-1.7068486,0.22
4.645033,1.568051,-1.7098587,0.18
4.63444,1.581051,-1.7078675,0.24
4.6458254,1.6020517,-1.7148788,0.18
4.6372204,1.6160519,-1.7128881,0.24
4.62565,1.6280518,-1.7108966,0.16
4.6423216,1.6430525,-1.7189037,0.23
4.63473,1.6570525,-1.7179128,0.2
4.610137,1.665052,-1.7099205,0.21
4.612563,1.6820525,-1.7139305,0.1
4.6439376,1.7110538,-1.727944,0.18
4.597339,1.7110525,-1.7119496,0.21
4.62076,1.7360536,-1.7239618,0.17
4.5934744,1.7340528,-1.7149639,0.24
4.6158524,1.7600539,-1.7259768,0.19
4.5862503,1.7660532,-1.716984,0.05
4.582675,1.7810533,-1.7169936,0.17
4.5900726,1.8010538,-1.7230048,0.11
4.576468,1.8130536,-1.7200137,0.18
4.5808644,1.832054,-1.7240248,0.1
4.577575,1.839054,-1.7240294,0.19
4.572989,1.854054,-1.725039,0.11
4.5563755,1.8650537,-1.721048,0.19
4.566791,1.8860543,-1.7280593,0.11
4.5831923,1.910055,-1.7370716,0.18
4.559582,1.9180545,-1.7300797,0.22
4.577984,1.9430553,-1.7400924,0.19
4.5506964,1.9400545,-1.7300943,0.12
4.5720773,1.9670554,-1.7411078,0.17
4.5375075,1.9690543,-1.7301139,0.12
4.5429006,1.9890547,-1.7351253,0.2
4.5373054,2.0040545,-1.7361352,0.21
4.5357018,2.0210547,-1.738146,0.16
4.529093,2.0360546,-1.7381561,0.23
4.519818,2.0400543,-1.7361598,0.1
4.515204,2.0560544,-1.7371702,0.19
4.528629,2.0790548,-1.7451824,0.1
4.5180283,2.0920546,-1.744192,0.18
4.50543,2.1040545,-1.7412013,0.12
4.5138197,2.1260545,-1.7482135,0.17
4.487512,2.1230536,-1.7392156,0.21
4.5139165,2.153055,-1.7532301,0.2
4.488315,2.1590538,-1.7452376,0.12
4.478729,2.1720536,-1.7442472,0.19
4.4731383,2.1870534,-1.7452573,0.2
4.4895344,2.2130542,-1.7552707,0.2
4.4519305,2.2130527,-1.7422768,0.23
4.467619,2.2300534,-1.7502847,0.19
4.4650135,2.2470531,-1.7532957,0.12
4.459427,2.2620533,-1.7533058,0.18
4.451841,2.276053,-1.7533157,0.12
4.4452386,2.2910523,-1.7543261,0.18
4.439653,2.3060522,-1.7553362,0.12
4.445055,2.3270524,-1.7603483,0.18
4.4397383,2.3340526,-1.7593536,0.22
4.436123,2.351052,-1.7623647,0.16
4.4155474,2.3580513,-1.7563726,0.24
4.4219403,2.3800516,-1.7623851,0.19
4.41334,2.394051,-1.7623953,0.22
4.415767,2.4130511,-1.7664067,0.17
4.4034586,2.4160504,-1.7634106,0.24
4.4098606,2.4380505,-1.7694232,0.19
4.391248,2.4470499,-1.7654321,0.23
4.402646,2.47205,-1.7734456,0.19
4.3640637,2.4690485,-1.7604505,0.12
4.3834796,2.498049,-1.7724652,0.16
4.361873,2.5050483,-1.7664734,0.22
4.362567,2.515048,-1.7684795,0.16
4.3519635,2.5280473,-1.7684895,0.13
4.354373,2.5480473,-1.7735015,0.21
4.345775,2.5620468,-1.7735118,0.11
4.3311625,2.5730457,-1.7705214,0.2
4.3385735,2.596046,-1.7775344,0.2
4.311991,2.5990446,-1.7695411,0.16
4.323673,2.616045,-1.7765496,0.25
4.3200746,2.6330445,-1.7785609,0.19
4.2974677,2.6390433,-1.7735689,0.24
4.315877,2.6690438,-1.7845842,0.2
4.3072824,2.6830435,-1.7845945,0.23
4.277695,2.6840417,-1.7756009,0.1
4.2853756,2.6990418,-1.7816088,0.2
4.2767806,2.7130413,-1.7816192,0.11
4.2701616,2.7290406,-1.7826306,0.19
4.2615986,2.7420402,-1.7826403,0.11
4.2619934,2.7620397,-1.7866527,0.19
4.244379,2.7710383,-1.7836618,0.11
4.2527795,2.7960384,-1.7916758,0.19
4.243509,2.799038,-1.7886796,0.11
4.239892,2.8170373,-1.7916915,0.18
4.2272825,2.8290362,-1.7907016,0.12
4.2207003,2.8440359,-1.7917123,0.2
4.203081,2.8530343,-1.7887216,0.11
4.200518,2.8700337,-1.7917328,0.18
4.1948967,2.8870332,-1.7937447,0.11
4.1906013,2.8940327,-1.7937499,0.2
4.186992,2.9120321,-1.795762,0.11
4.177412,2.9250312,-1.7957721,0.2
4.1638103,2.9360301,-1.7947818,0.11
4.1792054,2.9670303,-1.8057979,0.18
4.158611,2.973029,-1.800806,0.11
4.173292,2.9940293,-1.8098161,0.17
4.1447086,2.9940274,-1.8018221,0.11
4.1451015,3.0150268,-1.8068352,0.18
4.132521,3.0260258,-1.8048449,0.12
4.123906,3.0410247,-1.8058561,0.2
4.1123166,3.0530236,-1.8048661,0.11
4.122693,3.0820234,-1.814882,0.18
4.1104083,3.0830224,-1.8118852,0.12
4.0988197,3.0950215,-1.8108953,0.18
4.088223,3.1080203,-1.8109058,0.11
4.0986114,3.13702,-1.8209217,0.18
4.060024,3.1290176,-1.8069252,0.05
4.068403,3.1570175,-1.8159409,0.17
4.0558214,3.168016,-1.8149506,0.11
4.0565248,3.1790156,-1.8179573,0.18
4.0429215,3.1900144,-1.8159673,0.11
4.0463185,3.2140136,-1.8229815,0.18
4.026698,3.2210119,-1.8189903,0.22
4.0211287,3.237011,-1.8210016,0.16
4.0025287,3.2440093,-1.8180102,0.05
4.0102215,3.2610092,-1.8240191,0.18
3.9956243,3.2710075,-1.8220288,0.11
4.00301,3.2990072,-1.8310444,0.17
3.9704318,3.2940047,-1.8210489,0.05
3.9768279,3.3210044,-1.8290644,0.17
3.9692204,3.337003,-1.830076,0.2
3.9516096,3.3450012,-1.8280852,0.1
3.963324,3.3650012,-1.8360949,0.17
3.937726,3.365999,-1.8291016,0.23
3.9511027,3.399999,-1.8411195,0.19
3.9245343,3.3989966,-1.8331252,0.05
3.9219356,3.4189956,-1.8371384,0.16
3.907337,3.4289937,-1.836148,0.11
3.904742,3.4489927,-1.8401612,0.18
3.8884246,3.4469914,-1.8351637,0.05
3.875844,3.45799,-1.8341737,0.18
3.8662505,3.4719882,-1.8351847,0.1
3.8736238,3.5019877,-1.8452017,0.16
3.8480356,3.5019853,-1.8382078,0.23
3.8534217,3.5299845,-1.846224,0.19
3.839118,3.528983,-1.8422269,0.21
3.8215263,3.5359812,-1.8392355,0.0
3.8169215,3.5549798,-1.8432484,0.0
3.8193264,3.5799787,-1.8502634,0.0
3.8037555,3.587977,-1.8482721,0.0
3.7941422,3.6029751,-1.8492839,0.0
3.8045373,3.6359744,-1.8603017,0.0
3.780223,3.6259725,-1.8513016,0.08
3.7736318,3.6429708,-1.8543137,0.09
3.7660441,3.6589694,-1.8563255,0.18
3.7464268,3.664967,-1.8523343,0.12
3.7388399,3.6809657,-1.854346,0.17
3.7182207,3.6859634,-1.8503544,0.21
3.7116337,3.7029617,-1.8533665,0.1
3.717317,3.720961,-1.8593762,0.18
3.698746,3.7259588,-1.856384,0.22
3.6861417,3.7379568,-1.8563946,0.09
3.6725383,3.7489548,-1.8554051,0.18
3.659934,3.7609527,-1.8554157,0.11
3.64633,3.7719507,-1.854426,0.19
3.6440263,3.7819498,-1.8574327,0.11
3.6334474,3.7949479,-1.8574435,0.19
3.6308436,3.816946,-1.8634577,0.11
3.6162412,3.8269439,-1.8614676,0.2
3.6106162,3.846942,-1.8664814,0.2
3.5940378,3.85394,-1.86349,0.23
3.581436,3.8659375,-1.8635007,0.16
3.5761356,3.8729365,-1.8645065,0.24
3.580524,3.9029353,-1.8735237,0.2
3.547929,3.8939319,-1.8635268,0.12
3.5493193,3.9209304,-1.870543,0.18
3.531737,3.9269278,-1.8685514,0.23
3.5341349,3.954926,-1.8765677,0.18
3.5115204,3.9569235,-1.871575,0.24
3.5142362,3.9719224,-1.8765835,0.21
3.496653,3.97792,-1.8735919,0.12
3.4790444,3.9849174,-1.8716009,0.21
3.4764428,4.0079155,-1.8776156,0.17
3.4718406,4.0289135,-1.8816296,0.26
3.4552584,4.0359106,-1.8796384,0.18
3.4386277,4.044908,-1.8786484,0.25
3.4303474,4.047907,-1.8776525,0.22
3.429738,4.073905,-1.8846684,0.17
3.418146,4.086902,-1.8856795,0.26
3.4055285,4.0999,-1.8866907,0.21
3.385934,4.103897,-1.8826985,0.12
3.3723357,4.1148944,-1.882709,0.21
3.3597176,4.1278915,-1.8837204,0.17
3.3494282,4.1288905,-1.8817238,0.27
3.3418298,4.146888,-1.8847368,0.23
3.3252425,4.153885,-1.8827456,0.18
3.3076499,4.159882,-1.8807541,0.27
3.305053,4.1838803,-1.8867693,0.23
3.2824378,4.184877,-1.8817762,0.19
3.2801363,4.1958756,-1.8847835,0.26
3.2775457,4.2198734,-1.8907987,0.23
3.2659369,4.233871,-1.8928102,0.19
3.2453504,4.2358675,-1.8888173,0.26
3.247748,4.2668657,-1.8978351,0.24
3.2201235,4.261862,-1.8908399,0.27
3.215533,4.2838593,-1.8958545,0.21
3.2042542,4.282858,-1.892857,0.25
3.1896315,4.2938547,-1.8928677,0.23
3.174046,4.3018517,-1.891877,0.18
3.168434,4.3238487,-1.8978916,0.26
3.145849,4.322846,-1.8918976,0.24
3.1382487,4.341843,-1.895911,0.18
3.1319335,4.348841,-1.896917,0.27
3.1133497,4.3528385,-1.8939247,0.25
3.1027539,4.3678355,-1.8959366,0.19
3.0921383,4.383832,-1.8989491,0.27
3.075545,4.3908286,-1.897958,0.23
3.0609238,4.4018254,-1.8979688,0.19
3.0523462,4.418823,-1.9009813,0.27
3.0410588,4.4178214,-1.8979839,0.24
3.0334284,4.438818,-1.9029986,0.27
3.0238469,4.454815,-1.9060107,0.26
3.0012274,4.454811,-1.9010173,0.2
2.9936428,4.4738083,-1.9050306,0.28
2.984044,4.490805,-1.9090436,0.24
2.9704354,4.5028014,-1.9090545,0.19
2.9601517,4.5028,-1.9070575,0.28
2.9515448,4.5217967,-1.9110711,0.25
2.929928,4.522793,-1.907078,0.19
2.9113543,4.5257897,-1.9050852,0.26
2.9017413,4.5437865,-1.9080985,0.22
2.8931394,4.5627832,-1.9121121,0.18
2.874526,4.567779,-1.9101205,0.27
2.8932154,4.6117783,-1.9271406,0.22
2.8866215,4.6337743,-1.9331552,0.28
2.873003,4.646771,-1.9341668,0.28
2.861423,4.6607676,-1.9361782,0.27
2.83483,4.6527634,-1.9291815,0.29
2.8272142,4.6747603,-1.9341964,0.28
2.8149261,4.671758,-1.9311982,0.27
2.7943122,4.673754,-1.9272056,0.27
2.788739,4.6967506,-1.9342204,0.28
2.7721286,4.7047467,-1.9332298,0.27
2.7545257,4.710743,-1.9322386,0.28
2.7429132,4.7267394,-1.9342512,0.27
2.7343163,4.7467356,-1.9392651,0.27
2.7300193,4.756734,-1.9412721,0.27
2.7144213,4.76573,-1.9412819,0.27
2.6998167,4.776726,-1.9422925,0.27
2.6881933,4.793722,-1.9453057,0.28
2.6755955,4.8077183,-1.9473174,0.34
2.6540003,4.806714,-1.9433233,0.29
2.6384027,4.81571,-1.9433329,0.33
2.6291213,4.8167076,-1.9423362,0.31
2.609528,4.8187037,-1.9393432,0.3
2.5899158,4.8217,-1.9363507,0.3
2.5663216,4.8166957,-1.9313549,0.31
2.5477521,4.8186917,-1.9283615,0.32
2.531155,4.825688,-1.9273705,0.34
2.5135446,4.831683,-1.9263792,0.3
2.5022326,4.830681,-1.9243821,0.34
2.4786444,4.824677,-1.9183857,0.27
2.4580414,4.8246727,-1.914392,0.34
2.4424527,4.832669,-1.9144012,0.28
2.4208667,4.8296647,-1.9094061,0.17
2.4022691,4.8326607,-1.9074134,0.29
2.3936589,4.854656,-1.9134283,0.24
2.3893716,4.8646536,-1.9164351,0.27
2.372753,4.8726497,-1.9164447,0.26
2.3551526,4.877645,-1.9144528,0.29
2.34354,4.8946404,-1.9184657,0.26
2.3229442,4.893636,-1.9144715,0.18
2.3053422,4.898632,-1.9134796,0.3
2.3000445,4.9076295,-1.9154861,0.25
2.2824583,4.9116254,-1.9144938,0.28
2.2718654,4.9296203,-1.9185069,0.29
2.2482667,4.9226165,-1.9115102,0.27
2.231662,4.9296117,-1.9115192,0.28
2.2150726,4.935607,-1.9115275,0.27
2.2124386,4.972602,-1.9235486,0.26
2.202145,4.9716,-1.9205513,0.31
2.1855426,4.9785953,-1.9205602,0.25
2.166954,4.980591,-1.9185668,0.25
2.1533537,4.993586,-1.9205782,0.31
2.1307585,4.9875813,-1.9155817,0.3
2.1201632,5.0065765,-1.9205954,0.31
2.1025734,5.0105724,-1.9186028,0.29
2.0942497,5.015569,-1.9196081,0.32
2.0766587,5.0195646,-1.9186156,0.31
2.0630622,5.03256,-1.9206269,0.31
2.044454,5.035555,-1.918634,0.29
2.0248563,5.0355496,-1.91664,0.3
2.0122502,5.051545,-1.9196526,0.32
2.001666,5.07054,-1.924666,0.29
1.9883697,5.062538,-1.9196657,0.29
1.9717803,5.068533,-1.919674,0.3
1.956153,5.079528,-1.9206847,0.31
1.9415444,5.091522,-1.9236954,0.3
1.9259602,5.0995173,-1.9237045,0.3
1.9103627,5.1085124,-1.9247141,0.29
1.8957568,5.120507,-1.9267249,0.29
1.8854666,5.1185045,-1.924727,0.29
1.8698568,5.1284995,-1.925737,0.31
1.8582561,5.147494,-1.9307506,0.31
1.8376595,5.144489,-1.9277552,0.31
1.8200788,5.147484,-1.9257622,0.3
1.8024714,5.1524787,-1.9257702,0.29
1.799157,5.1694756,-1.9307802,0.33
1.7825572,5.1764703,-1.9307889,0.3
1.7669392,5.1874647,-1.9327993,0.29
1.7533609,5.2004595,-1.9358103,0.29
1.7357556,5.205454,-1.9348181,0.29
1.7161353,5.206448,-1.9328246,0.3
1.700544,5.2154427,-1.934834,0.31
1.6932588,5.2204404,-1.9348388,0.32
1.6796604,5.2354345,-1.9388506,0.29
1.6620435,5.241429,-1.938859,0.3
1.6424689,5.238424,-1.9348633,0.31
1.6248507,5.244418,-1.9348718,0.32
1.6082649,5.250413,-1.9348799,0.31
1.5906583,5.2554073,-1.9348876,0.3
1.5853359,5.269404,-1.9388964,0.29
1.5637604,5.260399,-1.9338983,0.3
1.5481501,5.271393,-1.9359087,0.3
1.5285459,5.2703876,-1.932914,0.23
1.5039663,5.2523828,-1.923912,0.07
1.4454328,5.129384,-1.8738666,0.0
1.3140211,4.775397,-1.7347248,0.0
1.2987328,4.7543955,-1.7257187,0.0
1.2791399,4.746391,-1.721721,0.07
1.2725189,4.7803836,-1.7327406,0.12
1.2343642,4.7643747,-1.7227447,0.55
1.2197392,4.774369,-1.7247545,0.31
1.2091361,4.7953625,-1.7307687,0.23
1.2008568,4.79436,-1.7297708,0.31
1.1842523,4.796355,-1.7287772,0.22
1.1656629,4.79035,-1.72478,0.28
1.1490673,4.7913446,-1.7237859,0.3
1.1284872,4.7773404,-1.7167853,0.29
1.108875,4.7693357,-1.7117875,0.0
1.1052607,4.816327,-1.7288126,0.0
1.1019295,4.837323,-1.7348242,0.06
1.0743815,4.795321,-1.7178117,0.08
1.0548056,4.783316,-1.7118118,0.2
1.0372074,4.7803116,-1.708816,0.2
1.0089926,4.801299,-1.7138356,0.64
0.9996991,4.7972965,-1.7118365,0.6
0.98410255,4.801291,-1.7118434,0.12
0.9834375,4.8692803,-1.7358776,0.04
1.0217508,5.0912595,-1.8189762,0.12
1.0769931,5.393232,-1.9321085,0.24
1.0613673,5.408224,-1.9361205,0.24
1.0347865,5.374221,-1.9211115,0.3
0.91077864,4.8782554,-1.7329048,0.16
0.8772219,4.8052554,-1.7038792,0.14
0.8546236,4.7802515,-1.6928741,0.06
0.83605194,4.7682467,-1.687874,0.04
0.8184524,4.763242,-1.683877,0.03
0.80783457,4.790234,-1.6928937,0.07
0.78924,4.7802296,-1.6878947,0.04
0.7839553,4.7912254,-1.6919017,0.0
0.7703268,4.8072186,-1.6969137,0.0
0.8697875,5.461152,-1.9402007,0.24
0.85018104,5.457146,-1.9372042,0.31
0.8315924,5.4551396,-1.9352086,0.25
0.8109842,5.446134,-1.93021,0.0
0.7927118,5.398135,-1.9121922,0.0
0.6744107,4.862176,-1.7099701,0.0
0.65682966,4.8541713,-1.7059717,0.0
0.64123994,4.857165,-1.705978,0.0
0.6246563,4.8541594,-1.7039816,0.0
0.60503674,4.840155,-1.6969808,0.0
0.58944446,4.8431487,-1.6969872,0.0
0.580158,4.8351464,-1.6939862,0.0
0.56655085,4.851139,-1.698998,0.0
0.54794693,4.839134,-1.6929979,0.0
0.5313621,4.8351283,-1.691001,0.0
0.515768,4.838123,-1.6910073,0.0
0.49818793,4.8271174,-1.6860074,0.0
0.4825796,4.8321114,-1.6870145,0.0
0.47430372,4.8271084,-1.6850146,0.0
0.457694,4.8261023,-1.6840191,0.0
0.44009382,4.817097,-1.6790203,0.0
0.42547512,4.830089,-1.6840308,0.0
0.40891638,4.820085,-1.679031,0.0
0.39228597,4.822078,-1.679037,0.0
0.3776826,4.833071,-1.6820465,0.0
0.36841214,4.8190694,-1.6770427,0.0
0.3567904,4.855059,-1.6890628,0.0
0.33620965,4.819057,-1.6750524,0.0
0.3226164,4.8360486,-1.6810644,0.06
0.30403042,4.8140454,-1.6720597,0.04
0.2904153,4.836036,-1.6790738,0.07
0.2811246,4.824034,-1.6750711,0.08
0.26554108,4.824028,-1.6740756,0.09
0.24791627,4.8160224,-1.6710773,0.18
0.23334736,4.821016,-1.6720837,0.1
0.21374738,4.7890134,-1.6590749,0.21
0.20016308,4.806005,-1.6650866,0.23
0.18255973,4.791,-1.659085,0.26
0.1742451,4.7909966,-1.6590874,0.26
0.1596786,4.7949905,-1.6590935,0.3
0.14406905,4.799983,-1.6611003,0.27
0.12846805,4.802976,-1.6621062,0.34
0.112845965,4.811969,-1.6641147,0.34
0.09626,4.799964,-1.6591141,0.29
0.08164755,4.817954,-1.6661264,0.4
0.07435295,4.8239503,-1.6681311,0.35
0.05778324,4.8059464,-1.6611278,0.33
0.043170363,4.8259373,-1.6681409,0.43
0.027555455,4.834929,-1.6711494,0.36
0.010974182,4.818925,-1.6641469,0.45
-0.0036226003,4.8359156,-1.6711586,0.29
-0.02021858,4.82391,-1.6661578,0.46
-0.026550027,4.8619018,-1.6791763,0.26
-0.04213743,4.862895,-1.6791811,0.62
-0.058759455,4.861888,-1.6791853,0.76
-0.07431259,4.846884,-1.6731831,0.77
-0.0899182,4.8558755,-1.6761913,0.46
-0.1065229,4.84487,-1.6721909,0.44
-0.122098245,4.8378644,-1.6691922,0.5
-0.13042614,4.8458595,-1.6721979,0.3
-0.14600284,4.838854,-1.6691991,0.46
-0.16261487,4.827848,-1.6651989,0.4
-0.17821617,4.8358397,-1.6682066,0.39
-0.19380799,4.837833,-1.6682117,0.38
-0.20939967,4.8398256,-1.6692166,0.37
-0.22498387,4.8348193,-1.6672187,0.4
-0.23330398,4.8408146,-1.6692234,0.34
-0.24889314,4.8408074,-1.6692276,0.41
-0.2644748,4.829802,-1.665227,0.33
-0.28006658,4.8317947,-1.6662319,0.4
-0.2966918,4.821789,-1.662232,0.37
-0.312287,4.83378,-1.6662412,0.36
-0.32787904,4.842771,-1.6702491,0.31
-0.33619174,4.831769,-1.6662465,0.39
-0.3517821,4.84276,-1.6702553,0.33
-0.3673725,4.8307543,-1.6662542,0.39
-0.38399762,4.849744,-1.6732665,0.34
-0.39958778,4.843737,-1.671268,0.36
-0.41517198,4.852729,-1.6742756,0.36
-0.4307679,4.838724,-1.6692737,0.38
-0.43907952,4.842719,-1.6712775,0.39
-0.45466235,4.849711,-1.6732843,0.33
-0.4712866,4.8527026,-1.6752898,0.41
-0.48584977,4.837698,-1.6692871,0.37
-0.50246626,4.847688,-1.6732954,0.34
-0.51805884,4.8436813,-1.6722975,0.41
-0.5336396,4.8486733,-1.6743033,0.39
-0.5409383,4.8316727,-1.6682981,0.37
-0.5575476,4.8436623,-1.6733072,0.39
-0.57314515,4.837656,-1.6713084,0.36
-0.58975744,4.8456464,-1.6743156,0.41
-0.60433215,4.8316417,-1.6693133,0.38
-0.62095344,4.834633,-1.6713187,0.4
-0.62822986,4.833629,-1.67132,0.34
-0.64381963,4.8326216,-1.6713232,0.38
-0.66044366,4.833614,-1.6713275,0.32
-0.6770448,4.8436036,-1.6753354,0.34
-0.6926436,4.838597,-1.6743369,0.24
-0.70824325,4.8335896,-1.6733385,0.29
-0.7218112,4.8125863,-1.6653332,0.24
-0.73110574,4.8325787,-1.6733434,0.11
-0.74569815,4.817573,-1.6683407,0.18
-0.76431715,4.84456,-1.6783557,0.19
-0.77990746,4.842552,-1.6783584,0.17
-0.79754186,4.850542,-1.6823655,0.16
-0.8141417,4.8565326,-1.6843715,0.04
-0.8327485,4.8815193,-1.6943856,0.07
-0.8390458,4.8635187,-1.6883798,0.04
-0.8556338,4.8715096,-1.6913866,0.0
-0.87423426,4.895496,-1.7014,0.0
-0.8878451,4.867493,-1.691392,0.0
-0.9034152,4.8694844,-1.693396,0.0
-0.919031,4.860478,-1.6903957,0.0
-0.93563,4.864469,-1.6924007,0.0
-0.94794923,4.8964577,-1.7044159,0.0
-0.9595058,4.866456,-1.6944065,0.0
-0.9771167,4.8754454,-1.6984136,0.0
-0.9947393,4.881435,-1.7014195,0.0
-1.012345,4.8904247,-1.7054266,0.0
-1.0279223,4.8894157,-1.7064292,0.0
-1.0465517,4.9004045,-1.7114372,0.0
-1.0518035,4.888404,-1.7064337,0.0
-1.0704145,4.9023914,-1.7134427,0.0
-1.0870103,4.9043827,-1.7144467,0.0
-1.1056367,4.914371,-1.7194542,0.0
-1.1202215,4.9043646,-1.716453,0.0
-1.134808,4.894358,-1.7134519,0.0
-1.1514132,4.894349,-1.714455,0.0
-1.1587017,4.890346,-1.7134547,0.0
-1.1732974,4.879339,-1.7104532,0.0
-1.2501339,5.2082505,-1.8345938,0.03
-1.3048456,5.4121914,-1.9126817,0.14
-1.3234527,5.4131813,-1.913685,0.32
-1.3410486,5.410172,-1.9136865,0.3
-1.3576463,5.401164,-1.9116855,0.22
-1.3468678,5.302184,-1.8746456,0.07
-1.3413842,5.1862035,-1.8326,0.0
-1.2937688,4.8652744,-1.7134694,0.0
-1.3043495,4.8362722,-1.7034602,0.0
-1.3119242,4.7932744,-1.6884452,0.0
-1.3235059,4.7712703,-1.6814389,0.0
-1.3308105,4.766268,-1.6794382,0.03
-1.3443991,4.754261,-1.6764361,0.03
-1.3630031,4.765249,-1.6824434,0.03
-1.3816267,4.773237,-1.6864495,0.03
-1.3972127,4.7712283,-1.6864514,0.07
-1.4178196,4.790214,-1.6954619,0.15
-1.4394339,4.812199,-1.7044736,0.16
-1.4547691,4.8401866,-1.7154865,0.21
-1.4673401,4.825181,-1.7114829,0.26
-1.4638921,4.7411942,-1.681451,0.36
-1.4985539,4.814164,-1.7104836,0.25
-1.5191374,4.83315,-1.7184937,0.11
-1.5578123,4.918116,-1.7525312,0.0
-1.5974663,5.007081,-1.7875701,0.12
-1.6087663,5.018073,-1.7925757,0.05
-1.6303688,5.0350585,-1.800585,0.16
-1.6299491,4.9640675,-1.7755585,0.19
-1.6224718,4.8730836,-1.7425236,0.1
-1.647082,4.9020653,-1.7545377,0.18
-1.6576474,4.880062,-1.7475309,0.05
-1.6742761,4.875053,-1.7475313,0.16
-1.6865704,4.890044,-1.7535384,0.2
-1.7061819,4.898031,-1.7585438,0.11
-1.7368028,4.9460063,-1.7785656,0.16
-1.7474093,4.9200034,-1.7705573,0.5
-1.727894,4.7970304,-1.7245095,0.18
-1.7816088,4.9179826,-1.7735608,0.0
-1.8062054,4.9439645,-1.7855731,0.03
-1.8385516,5.022935,-1.816606,0.12
-1.9172848,5.2228627,-1.8946886,0.16
-1.952936,5.276834,-1.9177123,0.29
-1.973539,5.282821,-1.9217166,0.34
-1.9881358,5.2688136,-1.9187126,0.3
-2.0127501,5.2867966,-1.9277215,0.33
-2.0223215,5.2587943,-1.918712,0.3
-2.0296016,5.2537904,-1.9177108,0.3
-2.048224,5.2507787,-1.9187113,0.31
-2.066815,5.250767,-1.9207128,0.31
-2.081407,5.23776,-1.9177092,0.29
-2.1040144,5.2487445,-1.9247152,0.29
-2.1135902,5.2217417,-1.9157059,0.32
-2.1278908,5.236731,-1.9227126,0.32
-2.143497,5.225723,-1.9207097,0.29
-2.1570926,5.209716,-1.9167048,0.31
-2.1756911,5.208704,-1.9187059,0.32
-2.198277,5.220689,-1.925712,0.32
-2.205856,5.1886873,-1.9157007,0.3
-2.2284608,5.1986723,-1.921706,0.3
-2.2480884,5.1976595,-1.9237069,0.29
-2.25536,5.1936555,-1.9227059,0.3
-2.2709591,5.183646,-1.9217032,0.29
-2.2885547,5.179636,-1.9217029,0.33
-2.3011389,5.1626296,-1.9176973,0.29
-2.3257508,5.1766124,-1.9257039,0.36
-2.3403656,5.1626043,-1.9226996,0.31
-2.3569515,5.1565943,-1.9226983,0.32
-2.361235,5.143593,-1.9186938,0.3
-2.3858385,5.1575756,-1.9267002,0.31
-2.3994362,5.142568,-1.9236953,0.32
-2.4150383,5.13256,-1.9216925,0.33
-2.4326198,5.1295476,-1.9236922,0.3
-2.4572246,5.142531,-1.930698,0.32
-2.4595242,5.123531,-1.9246911,0.3
-2.4771037,5.1205196,-1.9266908,0.29
-2.4927068,5.1105103,-1.9246877,0.3
-2.5163226,5.1194944,-1.930692,0.3
-2.5278885,5.102488,-1.9266862,0.3
-2.541507,5.0864806,-1.9236808,0.3
-2.5611088,5.0864677,-1.9266814,0.29
-2.570393,5.0864615,-1.9276817,0.26
-2.5879953,5.08145,-1.9286804,0.33
-2.6015904,5.0674424,-1.9256756,0.31
-2.618188,5.060432,-1.9256735,0.32
-2.6357627,5.0574207,-1.9266728,0.32
-2.657381,5.060406,-1.9306744,0.31
-2.6659448,5.037402,-1.9246662,0.27
-2.6782799,5.0403934,-1.9276675,0.35
-2.6958525,5.037382,-1.9286667,0.3
-2.7144556,5.03437,-1.9306659,0.3
-2.729059,5.022361,-1.9286617,0.3
-2.7436497,5.0113516,-1.9276578,0.3
-2.7632544,5.0103383,-1.9306577,0.29
-2.778819,5.0033283,-1.9306552,0.31
-2.780122,4.9843287,-1.9246483,0.32
-2.8017154,4.988314,-1.9286499,0.32
-2.8193278,4.982302,-1.9296477,0.31
-2.832904,4.970294,-1.9276434,0.31
-2.855523,4.974278,-1.9326448,0.31
-2.8671122,4.9572716,-1.9286386,0.32
-2.8826768,4.9502616,-1.928636,0.33
-2.896016,4.9542513,-1.9326373,0.31
-2.8995733,4.9232516,-1.9226259,0.27
-2.9171712,4.9182396,-1.924624,0.32
-2.9277673,4.899234,-1.9196169,0.32
-2.945365,4.894222,-1.920615,0.28
-2.9539347,4.873217,-1.9156071,0.28
-2.979543,4.8831987,-1.9226104,0.27
-2.9848356,4.8741956,-1.920607,0.29
-3.0004494,4.864186,-1.919603,0.27
-3.0190282,4.862172,-1.9226019,0.28
-3.0316303,4.8471646,-1.9195961,0.29
-3.0532343,4.849149,-1.9245963,0.28
-3.0698295,4.842138,-1.9245933,0.26
-3.0874224,4.8371253,-1.926591,0.26
-3.0957277,4.83312,-1.9265894,0.26
-3.1133192,4.828108,-1.9275869,0.27
-3.1289158,4.819097,-1.927583,0.26
-3.139495,4.80209,-1.9245764,0.3
-3.1590953,4.800077,-1.926575,0.28
-3.182714,4.8040595,-1.9325755,0.27
-3.202311,4.802045,-1.9355739,0.29
-3.1995902,4.780049,-1.9275659,0.31
-3.220166,4.781034,-1.9315654,0.26
-3.2407737,4.780019,-1.935564,0.27
-3.2663903,4.786999,-1.9425653,0.32
-3.2729576,4.7639966,-1.9355565,0.29
-3.2895641,4.7559843,-1.9365528,0.29
-3.3088615,4.77097,-1.9445573,0.31
-3.3174567,4.7499647,-1.9395489,0.29
-3.3370445,4.7479506,-1.942547,0.35
-3.3586535,4.747935,-1.9465458,0.28
-3.3782554,4.7449203,-1.9495435,0.4
-3.405857,4.7548995,-1.9575453,0.3
-3.4204514,4.7438893,-1.9575402,0.29
-3.4217448,4.7288885,-1.9535346,0.34
-3.4443383,4.7308726,-1.9575337,0.36
-3.4599438,4.720861,-1.9575288,0.36
-3.479538,4.717847,-1.9605262,0.36
-3.4891338,4.6988406,-1.9565184,0.39
-3.5107288,4.698825,-1.9605167,0.35
-3.5253413,4.6868143,-1.959511,0.41
-3.542621,4.697801,-1.9665138,0.34
-3.5622268,4.693786,-1.9695106,0.29
-3.5738263,4.6777782,-1.9665035,0.29
-3.5864007,4.664769,-1.9654975,0.29
-3.602995,4.656757,-1.966493,0.29
-3.6115887,4.6367507,-1.9624846,0.29
-3.6321821,4.6347356,-1.9654819,0.3
-3.6404974,4.6297297,-1.9654793,0.28
-3.6490757,4.610724,-1.9614712,0.3
-3.6666596,4.6047106,-1.9634671,0.29
-3.676249,4.5867047,-1.9594594,0.31
-3.6848323,4.5676985,-1.9554513,0.28
-3.6904314,4.543695,-1.9494416,0.29
-3.7100139,4.54068,-1.9534383,0.29
-3.7033055,4.515686,-1.9444295,0.27
-3.7219188,4.5096717,-1.9464252,0.27
-3.743515,4.5086555,-1.9504224,0.29
-3.7430773,4.4786563,-1.941411,0.27
-3.7666676,4.480639,-1.9464091,0.27
-3.7822556,4.4716268,-1.9474038,0.29
-3.7918591,4.4536195,-1.9443959,0.27
-3.801164,4.4506125,-1.9453936,0.25
-3.8187456,4.444599,-1.9473891,0.18
-3.8163292,4.4116015,-1.9373767,0.29
-3.8359456,4.4065866,-1.9393723,0.24
-3.847508,4.393578,-1.9383659,0.19
-3.8701215,4.39256,-1.9433626,0.28
-3.870696,4.3645606,-1.9353517,0.25
-3.892013,4.3765435,-1.9433537,0.21
-3.891585,4.3475437,-1.9353424,0.28
-3.9121826,4.3445287,-1.9383385,0.23
-3.9267855,4.333517,-1.9383322,0.18
-3.9323578,4.3125134,-1.9333233,0.26
-3.9479675,4.302501,-1.9343171,0.22
-3.9655662,4.295487,-1.936312,0.11
-3.9678519,4.284486,-1.9333073,0.19
-3.9854498,4.277472,-1.935302,0.11
-3.9930184,4.2594657,-1.9322938,0.09
-4.0046077,4.245457,-1.9302866,0.04
-4.0382366,4.2564297,-1.9422859,0.0
-4.040805,4.232428,-1.935276,0.0
-4.052395,4.2184186,-1.9342687,0.0
-4.06069,4.2144117,-1.9352659,0.0
-4.0723023,4.1994033,-1.9332582,0.0
-4.087866,4.1913905,-1.9352524,0.0
-4.106462,4.1853757,-1.937247,0.0
-4.1160674,4.168368,-1.9352387,0.0
-4.1196527,4.145365,-1.9292289,0.0
-4.134949,4.1493526,-1.934228,0.0
-4.1395187,4.1283493,-1.9292189,0.0
-4.167142,4.1313267,-1.9372153,0.0
-4.170732,4.1083236,-1.9312056,0.0
-4.189324,4.1023088,-1.9341999,0.0
-4.1998925,4.0882998,-1.9331925,0.0
-4.208502,4.0702925,-1.9301836,0.0
-4.2127843,4.0622897,-1.9281797,0.0
-4.224381,4.04828,-1.928172,0.0
-4.234952,4.0342712,-1.9261644,0.0
-4.2605786,4.03425,-1.9331597,0.0
-4.2671647,4.0152445,-1.9291507,0.0
-4.269723,3.993242,-1.9241413,0.03
-4.2833486,3.9802306,-1.9241334,0.13
-4.285911,3.9582283,-1.918124,0.17
-4.298208,3.9582183,-1.9211216,0.17
-4.3248034,3.9601967,-1.9281173,0.16
-4.3163805,3.926203,-1.917105,0.23
-4.3399935,3.924183,-1.9230995,0.19
-4.3445654,3.9041786,-1.9190903,0.12
-4.358168,3.8921673,-1.9190826,0.19
-4.3637433,3.8731627,-1.9150738,0.2
-4.3780365,3.875151,-1.9190716,0.09
-4.36961,3.8421571,-1.9080597,0.09
-4.415242,3.8611195,-1.925058,0.18
-4.406797,3.8291254,-1.9150466,0.12
-4.4214244,3.8171134,-1.9150385,0.18
-4.435979,3.8081005,-1.9170315,0.17
-4.4362955,3.7951002,-1.9130261,0.27
-4.4458776,3.7800915,-1.9120177,0.19
-4.4554596,3.7650836,-1.9100094,0.24
-4.4720616,3.7560692,-1.912002,0.21
-4.4796467,3.739062,-1.9099932,0.18
-4.4872336,3.722055,-1.9079844,0.26
-4.5188384,3.7270288,-1.9169792,0.19
-4.498117,3.696045,-1.9039708,0.22
-4.5217066,3.6940248,-1.9099647,0.18
-4.5243044,3.6720219,-1.9049547,0.24
-4.5519075,3.672999,-1.9119487,0.19
-4.544478,3.6430037,-1.9029378,0.22
-4.5800853,3.6509736,-1.9149326,0.16
-4.5766764,3.6239753,-1.9069219,0.23
-4.5869565,3.6219666,-1.9089185,0.17
-4.5955477,3.6059582,-1.9079098,0.24
-4.612142,3.5969439,-1.9099017,0.19
-4.608742,3.5699456,-1.901891,0.22
-4.6333385,3.5679247,-1.907884,0.16
-4.627898,3.5409281,-1.8998737,0.24
-4.643496,3.530914,-1.9018655,0.19
-4.647794,3.5229099,-1.9008609,0.25
-4.6773915,3.5248847,-1.9098543,0.2
-4.6739783,3.4988859,-1.9028438,0.12
-4.682548,3.4838781,-1.900835,0.19
-4.680137,3.458879,-1.8938247,0.1
-4.6937156,3.447866,-1.8958163,0.18
-4.6983056,3.4288616,-1.8918068,0.11
-4.7246404,3.437839,-1.9018039,0.18
-4.7161846,3.4098446,-1.8927939,0.21
-4.733796,3.4008286,-1.8957851,0.1
-4.7453823,3.3878179,-1.8957763,0.21
-4.7559733,3.3738077,-1.8957671,0.2
-4.7665644,3.3597982,-1.8947581,0.25
-4.779172,3.346786,-1.8957487,0.21
-4.77643,3.3347876,-1.8917443,0.22
-4.8010526,3.3307655,-1.8987355,0.18
-4.7946324,3.3037698,-1.8897253,0.23
-4.8142266,3.2967522,-1.8937167,0.18
-4.8188004,3.2787464,-1.8917073,0.25
-4.842394,3.2747262,-1.8966987,0.19
-4.825966,3.2407372,-1.8846881,0.11
-4.8452826,3.243721,-1.8906839,0.2
-4.8478465,3.224717,-1.8876745,0.11
-4.8704414,3.219697,-1.8926657,0.18
-4.8630204,3.192701,-1.8846556,0.22
-4.8796287,3.1826856,-1.8876461,0.2
-4.878198,3.1606853,-1.8816365,0.23
-4.911819,3.1626563,-1.8916274,0.16
-4.88808,3.135675,-1.878622,0.24
-4.9186926,3.135648,-1.8876128,0.16
-4.9122787,3.1096509,-1.8806028,0.24
-4.9258785,3.0976381,-1.8815931,0.16
-4.932451,3.0816305,-1.8805836,0.23
-4.954069,3.0746107,-1.8855737,0.17
-4.9323072,3.050628,-1.8735694,0.23
-4.960923,3.0486023,-1.8815596,0.19
-4.9554863,3.024605,-1.8745501,0.24
-4.972088,3.0145893,-1.8775401,0.18
-4.9806733,2.9995804,-1.8765304,0.24
-5.000274,2.9915626,-1.8805205,0.18
-4.9828424,2.959574,-1.869511,0.24
-4.9871507,2.9515698,-1.8685057,0.16
-5.0107417,2.9465485,-1.8744959,0.27
-5.0173197,2.9305406,-1.8734862,0.18
-5.00791,2.9035466,-1.8644763,0.25
-5.040523,2.9035175,-1.8744657,0.19
-5.0260816,2.874527,-1.8644565,0.25
-5.044687,2.8655093,-1.8684461,0.19
-5.0419807,2.8535109,-1.8644413,0.25
-5.0695777,2.8504858,-1.8724306,0.21
-5.053139,2.820497,-1.8614217,0.12
-5.075757,2.8134758,-1.8674107,0.21
-5.086325,2.8004653,-1.8674009,0.14
-5.082902,2.7784653,-1.8623914,0.29
-5.1035075,2.770446,-1.8673804,0.19
-5.0887957,2.7514572,-1.8583763,0.25
-5.1094,2.7434375,-1.8633653,0.19
-5.117963,2.7294283,-1.8633554,0.13
-5.121554,2.7114234,-1.8603454,0.19
-5.1241593,2.6924179,-1.8583351,0.16
-5.1387105,2.682404,-1.8603251,0.26
-5.1363187,2.6604035,-1.8553151,0.24
-5.13258,2.6494052,-1.8523109,0.19
-5.1481786,2.6383896,-1.8553,0.27
-5.155786,2.622381,-1.8542893,0.21
-5.166386,2.608369,-1.8552786,0.12
-5.1729465,2.5933616,-1.8542687,0.21
-5.180555,2.577353,-1.853258,0.18
-5.171116,2.5533578,-1.8462495,0.26
-5.193433,2.5553381,-1.8532423,0.18
-5.1850142,2.5313425,-1.8462332,0.25
-5.2026114,2.521325,-1.8502218,0.18
-5.2092047,2.505317,-1.8492112,0.24
-5.217771,2.4913075,-1.8492008,0.17
-5.2113643,2.4683099,-1.8431916,0.25
-5.2329626,2.4602885,-1.8491794,0.18
-5.225232,2.4472938,-1.8441757,0.24
-5.246828,2.4392736,-1.8491635,0.18
-5.2434144,2.418274,-1.844154,0.25
-5.250996,2.4032645,-1.8441434,0.19
-5.254576,2.3862588,-1.8421333,0.12
-5.2711787,2.3752418,-1.8461213,0.2
-5.2464657,2.353261,-1.8341193,0.17
-5.2650695,2.3432426,-1.8381071,0.26
-5.279639,2.3322275,-1.8410958,0.18
-5.2732215,2.3102303,-1.8350867,0.24
-5.2938204,2.3012102,-1.8400741,0.2
-5.2874074,2.2792118,-1.835065,0.23
-5.2969913,2.2652016,-1.8350539,0.14
-5.2952785,2.2552013,-1.8330494,0.26
-5.306862,2.2421885,-1.835038,0.16
-5.3174605,2.2281766,-1.8360262,0.26
-5.31905,2.2101724,-1.8330162,0.19
-5.3276186,2.196162,-1.8340052,0.13
-5.328227,2.1771584,-1.8309948,0.21
-5.335813,2.1621492,-1.8309838,0.2
-5.3390822,2.155145,-1.8309788,0.25
-5.355705,2.1431272,-1.8349656,0.18
-5.342272,2.119136,-1.8259581,0.24
-5.3668804,2.1111119,-1.8329439,0.18
-5.3424244,2.0831294,-1.8209387,0.25
-5.3830323,2.082092,-1.8339214,0.22
-5.3685966,2.0581007,-1.8259144,0.12
-5.361887,2.046105,-1.8219107,0.17
-5.3704896,2.0310946,-1.8218989,0.23
-5.3990784,2.0250669,-1.8308837,0.21
-5.3776526,1.9980817,-1.819878,0.23
-5.378243,1.9800782,-1.8168678,0.1
-5.39283,1.9680628,-1.8198552,0.18
-5.3914275,1.9490603,-1.8168453,0.11
-5.399701,1.9440517,-1.818839,0.18
-5.412324,1.9300376,-1.8208258,0.11
-5.404876,1.9100412,-1.814818,0.18
-5.418479,1.897026,-1.8178049,0.05
-5.4420795,1.8880023,-1.8247898,0.0
-5.4306498,1.8660088,-1.8177824,0.0
-5.4322267,1.849004,-1.8157722,0.0
-5.4565363,1.8489817,-1.8237616,0.0
-5.4731383,1.8369633,-1.8287476,0.0
-4.2033324,-2.1682465,-1.7941569,0.0
-4.157911,-2.1642885,-1.7781311,0.02
-4.0735064,-2.1423635,-1.7460731,0.14
-4.0837903,-2.1553564,-1.7520874,0.25
-4.0754128,-2.1693676,-1.7510931,0.28
-4.0320234,-2.1664078,-1.7360692,0.22
-4.0076065,-2.1714323,-1.7280606,0.29
-4.00819,-2.1884353,-1.7310729,0.23
-3.9937832,-2.1984515,-1.7270728,0.18
-3.9700832,-2.195473,-1.7190589,0.27
-3.9767025,-2.2164707,-1.725077,0.23
-3.959283,-2.2244892,-1.7200739,0.23
-3.885868,-2.2045546,-1.6920234,0.24
-3.849447,-2.202588,-1.6800038,0.36
-3.7950394,-2.191637,-1.6599692,0.28
-3.7596548,-2.1906703,-1.647951,0.33
-3.7549586,-2.1966763,-1.646953,0.33
-3.7855406,-2.2286544,-1.6619905,0.27
-3.7541614,-2.2296839,-1.6519759,0.36
-3.7427351,-2.2396965,-1.6499773,0.28
-3.6883392,-2.2277455,-1.6299422,0.36
-3.628909,-2.211798,-1.6079019,0.28
-3.6325328,-2.2307985,-1.611917,0.31
-3.597816,-2.2198288,-1.5988923,0.31
-3.6094277,-2.2428231,-1.6059142,0.3
-3.5800161,-2.2428503,-1.5969,0.35
-3.5706093,-2.2538617,-1.5949032,0.32
-3.6002138,-2.28684,-1.6109406,0.36
-3.6098154,-2.308836,-1.6169606,0.31
-3.580413,-2.3088632,-1.6079465,0.28
-3.5736952,-2.3128705,-1.605946,0.36
-3.565302,-2.3248804,-1.6059502,0.34
-3.551905,-2.333895,-1.6029501,0.33
-3.551526,-2.3508983,-1.6059616,0.33
-3.4931045,-2.3329494,-1.583921,0.3
-3.4496686,-2.3229885,-1.567893,0.37
-3.4412544,-2.3339987,-1.5668968,0.28
-3.4685762,-2.3589778,-1.5799272,0.26
-3.4481993,-2.3639975,-1.5749209,0.34
-3.4387693,-2.3740087,-1.5729233,0.35
-3.4203565,-2.3790267,-1.567918,0.32
-3.379962,-2.3710628,-1.5538931,0.3
-3.3625371,-2.3760805,-1.5488883,0.35
-3.3261423,-2.370113,-1.5368668,0.31
-3.2694097,-2.3421612,-1.5128205,0.32
-3.2280035,-2.3321981,-1.497794,0.35
-3.1905892,-2.3242314,-1.4847709,0.29
-3.170156,-2.3262515,-1.4777627,0.34
-3.2088127,-2.3682222,-1.4988099,0.27
-3.2824354,-2.4321651,-1.5338889,0.33
-3.2607281,-2.4261842,-1.5258745,0.3
-3.2763102,-2.4521742,-1.5358998,0.33
-3.263932,-2.461187,-1.5339,0.34
-3.2434938,-2.4632063,-1.5278918,0.33
-3.2221196,-2.4662273,-1.5208838,0.32
-3.1896899,-2.4602563,-1.5098644,0.38
-3.159292,-2.4562836,-1.4998475,0.31
-3.161603,-2.4662828,-1.5028554,0.35
-3.1551673,-2.4772909,-1.50286,0.34
-3.12778,-2.475316,-1.4938457,0.35
-3.1253922,-2.4903207,-1.495855,0.33
-3.109967,-2.495336,-1.4918511,0.3
-3.1055915,-2.509342,-1.4938586,0.35
-3.0801706,-2.5073657,-1.4848455,0.31
-3.0854738,-2.519362,-1.4898561,0.32
-3.0510726,-2.5113933,-1.4768348,0.32
-3.0296702,-2.512413,-1.4708254,0.36
-3.0242548,-2.5244198,-1.4718312,0.36
-3.0258367,-2.5414207,-1.4758433,0.36
-2.9974456,-2.5374465,-1.4658276,0.35
-2.9790497,-2.5404642,-1.4608213,0.32
-2.9713316,-2.5424716,-1.458819,0.31
-2.9519317,-2.5444896,-1.4538115,0.39
-2.9475303,-2.5574958,-1.4548184,0.31
-2.9581192,-2.5814896,-1.4628394,0.31
-2.9577475,-2.5984921,-1.4668505,0.37
-2.9653354,-2.6204882,-1.4738687,0.3
-2.9629407,-2.6354928,-1.4758776,0.41
-2.9412503,-2.6275115,-1.4678625,0.36
-2.8557866,-2.5765831,-1.4307895,0.27
-2.8423889,-2.5825958,-1.4287875,0.31
-2.8169715,-2.578619,-1.4197732,0.33
-2.7895448,-2.572643,-1.410757,0.29
-2.7731361,-2.5756583,-1.4067516,0.34
-2.782741,-2.5996528,-1.414772,0.27
-2.8040705,-2.6256368,-1.426799,0.3
-2.816684,-2.6526291,-1.4358226,0.34
-2.830296,-2.68062,-1.4468473,0.34
-2.835884,-2.7016177,-1.4528637,0.32
-2.81749,-2.7036347,-1.4478567,0.32
-2.858111,-2.7546034,-1.4719086,0.35
-2.8704193,-2.7735953,-1.4789265,0.35
-2.7749562,-2.7096744,-1.4368416,0.31
-2.6554918,-2.6247728,-1.3827323,0.34
-2.6510706,-2.6367786,-1.3837383,0.3
-2.7327192,-2.7237144,-1.4278319,0.25
-2.7623813,-2.767692,-1.446874,0.3
-2.7559593,-2.7786999,-1.4468783,0.35
-2.75027,-2.782705,-1.4468783,0.35
-2.763869,-2.8116963,-1.4569033,0.36
-2.7454581,-2.812713,-1.4518957,0.32
-2.7400703,-2.825719,-1.4539016,0.39
-2.7316697,-2.8357277,-1.4539044,0.35
-2.7162435,-2.838742,-1.4498996,0.32
-2.7118583,-2.8527474,-1.4519066,0.43
-2.705133,-2.8547535,-1.4509048,0.3
-2.6897447,-2.8587682,-1.4469006,0.3
-2.6983309,-2.8837626,-1.4559205,0.34
-2.701963,-2.9057617,-1.4619361,0.35
-2.7005446,-2.9217649,-1.4649458,0.43
-2.6971512,-2.9367692,-1.4679538,0.31
-2.6547027,-2.9138048,-1.4509202,0.33
-2.6540265,-2.9228063,-1.4529257,0.36
-2.6466277,-2.9338136,-1.4539294,0.33
-2.657227,-2.961807,-1.462952,0.29
-2.6498237,-2.9728146,-1.4639556,0.34
-2.6434534,-2.9858217,-1.464961,0.38
-2.6200309,-2.9808416,-1.4579475,0.33
-2.6155999,-2.9938467,-1.4599538,0.33
-2.6159492,-3.0048473,-1.462961,0.36
-2.5975382,-3.0048635,-1.4579527,0.3
-2.5821326,-3.0078778,-1.4539479,0.42
-2.5827324,-3.0268788,-1.45896,0.0
-2.5492964,-3.0109072,-1.4459354,0.0
-1.958429,-2.4233837,-1.1383082,0.0
-1.9307499,-2.4034061,-1.1262839,0.0
-1.920308,-2.4064167,-1.123282,0.0
-1.8999145,-2.400434,-1.1172702,0.0
-1.8785294,-2.393453,-1.1092575,0.0
-1.8590695,-2.3864698,-1.1022455,0.0
-1.8656949,-2.4084654,-1.1102629,0.0
-1.8422883,-2.398486,-1.1012474,0.0
-1.8265561,-2.3884993,-1.0942348,0.02
-1.8171328,-2.3925085,-1.0922341,0.13
-1.8017647,-2.391522,-1.0882279,0.04
-1.7953372,-2.3985286,-1.0882303,0.0
-1.7658983,-2.380553,-1.0762074,0.0
-1.7424917,-2.369573,-1.0671914,0.0
-1.7300954,-2.3705845,-1.0641878,0.0
-1.7153896,-2.3615968,-1.0581763,0.0
-1.7159886,-2.3765976,-1.0621867,0.0
-1.6815717,-2.3526263,-1.0471582,0.0
-1.6711417,-2.354636,-1.045156,0.0
-1.6717414,-2.3696365,-1.0491664,0.0
-1.654308,-2.3636515,-1.0431564,0.0
-1.6346107,-2.348668,-1.0341393,0.0
-1.6231968,-2.3496788,-1.031136,0.0
-1.6177905,-2.357684,-1.0321397,0.0
-1.6243908,-2.37968,-1.0391569,0.0
-1.5829682,-2.345714,-1.0201198,0.02
-1.5755402,-2.3507214,-1.0191207,0.11
-1.5781623,-2.36872,-1.0251338,0.09
