X,Y,Z,Intensity
9.991308,11.500738,0.17940134,0.58
9.984862,11.566734,0.17938393,0.57
9.981409,11.637731,0.17936501,0.59
9.975964,11.705727,0.17934708,0.58
9.988739,11.758722,0.17833184,0.56
9.981297,11.824719,0.17831469,0.57
9.979845,11.899714,0.17829469,0.57
9.9733925,11.96971,0.1782765,0.55
9.967949,12.039707,0.17825826,0.56
9.960506,12.107703,0.17824076,0.56
9.953049,12.1786995,0.17822254,0.55
9.97183,12.240694,0.17820458,0.57
9.964384,12.310691,0.17818668,0.55
9.954943,12.3776865,0.17816982,0.54
9.956494,12.460682,0.17814785,0.55
9.95105,12.534678,0.1781289,0.54
9.943604,12.606674,0.1771107,0.53
9.93515,12.679671,0.17709239,0.54
9.948934,12.737667,0.17707607,0.52
9.946489,12.817662,0.1770555,0.53
9.938044,12.890659,0.17703731,0.54
9.9355955,12.972654,0.17701633,0.52
9.928147,13.048651,0.17699741,0.53
9.919702,13.123648,0.17697889,0.51
9.935487,13.186643,0.17696124,0.51
9.934037,13.272638,0.17693934,0.51
9.924593,13.347635,0.17692105,0.5
9.918152,13.426632,0.17590155,0.52
9.908703,13.503628,0.17588289,0.52
9.90526,13.588624,0.17586167,0.52
9.892817,13.661621,0.17584445,0.52
9.9095955,13.730617,0.17582536,0.49
9.906153,13.817612,0.17580378,0.5
9.898714,13.898608,0.17578419,0.48
9.895268,13.987604,0.17576225,0.48
9.887827,14.0706005,0.17574228,0.48
9.882384,14.157598,0.17572117,0.48
9.875935,14.245593,0.17469998,0.48
9.889715,14.313588,0.17468165,0.47
9.885275,14.4035845,0.17465985,0.48
9.874831,14.486582,0.17464049,0.45
9.872394,14.580577,0.17461762,0.48
9.862949,14.6665745,0.17459756,0.45
9.854507,14.75457,0.17457695,0.45
9.871292,14.829566,0.17455675,0.44
9.865846,14.9245615,0.17453422,0.44
9.854409,15.008559,0.1745151,0.44
9.843967,15.096556,0.17349496,0.44
9.840524,15.196552,0.1734712,0.43
9.8340845,15.291549,0.17344905,0.43
9.827642,15.388545,0.1734265,0.43
9.83943,15.459541,0.17340806,0.42
9.833984,15.560536,0.17338453,0.41
9.8285475,15.660533,0.17336132,0.42
9.820109,15.75653,0.1733395,0.41
9.805669,15.844527,0.17232041,0.53
9.807231,15.959523,0.17229299,0.39
9.795794,16.05352,0.17227225,0.41
9.786354,16.152515,0.17225015,0.5
9.806145,16.24151,0.17222671,0.4
9.7967005,16.343508,0.17220402,0.5
9.794265,16.456503,0.17217793,0.38
9.781824,16.5545,0.17215674,0.52
9.778388,16.668497,0.1711307,0.38
9.763953,16.763494,0.17111062,0.48
9.788743,16.866488,0.17108347,0.36
9.776303,16.968485,0.17106162,0.47
9.774871,17.089481,0.17103398,0.35
9.759432,17.18848,0.1710134,0.47
9.754001,17.304476,0.17098764,0.4
9.772569,17.466469,0.16994807,0.63
3.4752507,6.425587,0.19335334,0.43
9.711119,17.486475,0.16995224,0.19
3.4367833,6.4055924,0.19336396,0.3
3.4123273,6.4095955,0.19336717,0.35
3.3878696,6.4135985,0.19337042,0.23
3.3574195,6.405603,0.19337726,0.55
3.2069237,6.177629,0.19445126,0.25
3.1654642,6.147635,0.19446476,0.29
3.1442327,6.1316385,0.1944718,0.39
3.1187687,6.131642,0.19447628,0.43
3.0973198,6.137645,0.19447881,0.31
3.0758603,6.1446476,0.19448116,0.38
3.0474136,6.136652,0.19448794,0.26
3.0249333,6.143655,0.19449055,0.22
3.0084896,6.1586566,0.19449046,0.46
3.0072532,6.181657,0.19448593,0.23
2.9948027,6.2056575,0.1944833,0.49
2.9813447,6.228659,0.19448106,0.4
2.9738998,6.2626595,0.19447549,0.29
2.9634392,6.2926607,0.19447133,0.44
2.931968,6.2806654,0.19447975,0.25
2.9055152,6.276669,0.19448562,0.25
2.8902774,6.2716713,0.19448957,0.39
2.8698275,6.2796745,0.19449191,0.32
2.8463743,6.2816777,0.19449608,0.39
2.819907,6.2786818,0.19450188,0.39
2.803435,6.2976837,0.19450134,0.36
2.7779934,6.2936883,0.19450721,0.43
2.7565227,6.301691,0.19450994,0.39
2.7543025,6.322691,0.19450621,0.42
2.7358387,6.336694,0.19450718,0.26
3.8597136,8.888474,0.18877122,0.43
3.8442595,8.930476,0.18876576,0.14
3.8658187,9.056471,0.1887361,0.66
3.8263683,9.043476,0.18874657,0.66
3.806138,9.03648,0.18875203,0.67
3.7706752,9.034485,0.18875957,0.67
3.7392137,9.04149,0.18876456,0.68
3.7047675,9.038495,0.18877219,0.67
3.668298,9.034501,0.1887805,0.66
3.6368396,9.040506,0.18878585,0.64
3.603381,9.041511,0.18879265,0.5
3.584158,9.034514,0.18879807,0.59
3.5446966,9.02052,0.18880917,0.55
3.5132344,9.026526,0.18881471,0.66
3.4827852,9.032531,0.18882008,0.66
3.4503298,9.034535,0.18882671,0.68
3.4138653,9.027541,0.18883602,0.53
3.3824155,9.030547,0.18884236,0.64
3.362183,9.02155,0.18884857,0.65
3.3297129,9.025556,0.188855,0.66
3.2982607,9.028561,0.18886146,0.65
3.2627983,9.022566,0.18987061,0.64
3.2293417,9.020572,0.1898786,0.65
3.196883,9.021578,0.18988582,0.66
3.163424,9.019584,0.18989392,0.66
3.1502035,9.026586,0.18989564,0.67
3.1137352,9.017591,0.18990584,0.66
3.0822866,9.018597,0.18991303,0.66
3.0488186,9.017603,0.18992113,0.67
3.0153687,9.012609,0.18993002,0.67
2.9839077,9.015614,0.189937,0.66
2.9544456,9.024619,0.18994242,0.67
2.9312139,9.003623,0.18995197,0.64
2.9017553,9.011629,0.18995766,0.64
2.8733063,9.020634,0.18996297,0.64
2.8368437,9.007641,0.1899744,0.63
2.8033807,9.003646,0.18998346,0.65
2.7749252,9.013651,0.18998875,0.65
2.7424705,9.010656,0.1899975,0.65
2.7262404,9.009661,0.1900018,0.65
2.6927824,9.003666,0.19001143,0.65
2.6603198,9.001672,0.19002011,0.67
2.6268635,8.9946785,0.19003004,0.65
2.6004045,9.011683,0.19003384,0.66
2.566946,9.004689,0.19004387,0.63
2.5334861,8.997696,0.19005395,0.64
2.51825,9.000699,0.19005744,0.61
2.4837902,8.989705,0.1900686,0.63
2.4523313,8.988711,0.19007722,0.6
2.4248855,8.998716,0.19008283,0.62
2.3924267,8.993723,0.19009255,0.64
2.3609693,8.991729,0.1901015,0.62
2.330502,8.995735,0.19010918,0.64
2.3112755,8.980739,0.19011715,0.66
2.2808146,8.982744,0.19012526,0.64
2.2513525,8.98875,0.19013244,0.61
2.2178912,8.978757,0.19014363,0.62
2.1884434,8.9807625,0.19015162,0.62
2.1529713,8.96477,0.19016454,0.75
2.1135101,8.928778,0.19018218,0.6
2.0982873,8.926782,0.19018693,0.3
2.0658252,8.918787,0.19019774,0.27
2.033365,8.909794,0.19020876,0.25
2.0069098,8.9248,0.19021392,0.25
1.9774516,8.927806,0.1902221,0.25
1.9399914,8.895814,0.19023877,0.13
1.9085271,8.89082,0.19024904,0.16
1.9013013,8.924822,0.19024533,0.15
1.8223758,8.838839,0.19028406,0.52
1.8099289,8.916841,0.19027445,0.2
1.7804734,8.917848,0.19028333,0.18
1.7500174,8.913853,0.19029342,0.32
1.7235605,8.929859,0.19029891,0.19
1.7043256,8.909863,0.19030833,0.2
1.6708571,8.89387,0.19032156,0.29
1.6464096,8.916876,0.19032536,0.47
1.6149434,8.909883,0.19033654,0.28
1.5834816,8.900889,0.19034812,0.13
1.5600264,8.932894,0.19035023,0.26
1.523561,8.896903,0.19036812,0.54
1.518347,8.944903,0.1903617,0.25
1.4918852,8.963909,0.19036712,0.6
1.4604323,8.950917,0.19037962,0.59
1.4299695,8.946923,0.19039033,0.58
1.4005138,8.9459305,0.19040026,0.62
1.3700569,8.938937,0.1904116,0.7
1.3518246,8.917941,0.19042122,0.64
1.2903253,8.728955,0.19147354,0.29
1.260866,8.723963,0.19148436,0.26
1.2294025,8.706969,0.19149792,0.12
1.2019494,8.711976,0.1915065,0.56
1.1945199,8.845978,0.19148678,0.23
1.1650548,8.844985,0.19149715,0.23
1.148828,8.830989,0.1915051,0.21
1.1213741,8.838994,0.19151337,0.22
1.091901,8.8410015,0.19152339,0.21
1.0614512,8.824009,0.19153695,0.18
2.0685978,16.336763,0.1779372,0.3
2.0151396,16.333776,0.17795612,0.32
1.9616864,16.32479,0.17797615,0.32
1.9344572,16.317797,0.1779868,0.32
1.8819991,16.322807,0.1780043,0.34
1.8285441,16.313818,0.17802459,0.32
1.7760893,16.313831,0.17804313,0.32
1.7246368,16.321844,0.1780601,0.32
1.6721802,16.323856,0.17807852,0.28
1.6497945,16.585861,0.17804325,0.19
1.2056909,12.771972,0.18483362,0.18
1.1247842,12.778992,0.1848622,0.38
1.0843284,12.785001,0.18487619,0.37
1.0428737,12.777012,0.18489294,0.37
1.0014114,12.777022,0.18490846,0.37
0.95995057,12.775031,0.1849244,0.36
0.9397256,12.774037,0.1849322,0.37
0.89927536,12.772047,0.18494786,0.36
0.85781133,12.773057,0.18496351,0.37
0.8163531,12.765068,0.18498072,0.38
0.7758947,12.774078,0.18499483,0.38
0.7344408,12.757089,0.18501368,0.38
0.69398344,12.764098,0.18502828,0.38
0.67375624,12.765104,0.18503603,0.38
0.6322939,12.760115,0.18505311,0.34
0.59184235,12.755125,0.18506989,0.39
0.5513882,12.755136,0.18508592,0.34
0.50992364,12.752146,0.18510294,0.39
0.4694675,12.756156,0.18511848,0.34
0.42901474,12.750167,0.18513575,0.39
0.40878755,12.749172,0.18514408,0.38
0.3683313,12.753183,0.18515983,0.34
0.32787624,12.753194,0.18517633,0.39
0.28641018,12.750205,0.1851938,0.34
0.24595599,12.742215,0.18521176,0.39
0.20549998,12.743226,0.18522833,0.38
0.16504264,12.759237,0.18524255,0.35
0.14481676,12.733242,0.18525521,0.39
0.10334898,12.732254,0.18527275,0.34
0.06289242,12.733264,0.18528962,0.36
0.02243591,12.734276,0.18530656,0.36
-0.017008726,12.741286,0.1853222,0.36
-0.058477186,12.735297,0.18534088,0.36
-0.07870536,12.736303,0.18534939,0.36
-0.119162634,12.732315,0.18536744,0.36
-0.15962103,12.724325,0.18538623,0.36
-0.20007716,12.728336,0.18540314,0.32
-0.24053109,12.739348,0.18541901,0.55
-0.27998212,12.72036,0.1854394,0.27
-0.32044837,12.69437,0.18546146,0.14
-0.3563066,14.202379,0.18223126,0.34
-0.4017661,14.203393,0.18225119,0.36
-0.4472276,14.199406,0.182272,0.36
-0.49167773,14.198418,0.18229198,0.35
-0.5371342,14.205431,0.1823112,0.28
-0.58159137,14.190443,0.18233366,0.4
-0.6270552,14.183456,0.18235536,0.39
-0.6492819,14.180463,0.18236592,0.37
-0.69474155,14.181476,0.18238646,0.38
-0.73918885,14.18549,0.18240613,0.38
-0.7846507,14.182502,0.1824275,0.38
-0.8291032,14.178515,0.18244867,0.37
-0.8745629,14.178529,0.18246974,0.37
-0.9190186,14.170542,0.18249175,0.41
-0.96446884,14.182555,0.18251103,0.36
-0.986704,14.16956,0.18252361,0.44
-1.0321594,14.174574,0.18254417,0.36
-1.0766156,14.166588,0.18256652,0.42
-1.122074,14.167601,0.18258795,0.36
-1.1675323,14.168615,0.18260947,0.38
-1.2299144,14.424633,0.18259695,0.39
-1.1275909,12.677606,0.18583734,0.15
-1.1690488,12.686618,0.18585593,0.27
-1.2105057,12.695631,0.18587458,0.16
-1.249958,12.6886425,0.18589501,0.17
-1.2914212,12.691655,0.18591484,0.17
-1.331875,12.692668,0.18593459,0.16
-1.3713261,12.68668,0.1859551,0.23
-1.3925518,12.696687,0.18596396,0.24
-1.0589799,8.7775955,0.1924545,0.18
-1.0834522,8.736603,0.19247383,0.25
-1.1119044,8.742612,0.19248731,0.35
-1.1393688,8.733621,0.19250289,0.26
-1.1688263,8.744631,0.19251615,0.46
-1.6343014,12.670762,0.1860899,0.2
-1.6565354,12.680769,0.18609956,0.39
-1.6959928,12.670781,0.18612142,0.25
-1.7364442,12.671794,0.18614201,0.18
-1.8213571,12.693821,0.18618214,0.45
-1.8618065,12.694835,0.18620299,0.45
-1.9032737,12.691848,0.18622513,0.45
-1.9234936,12.694855,0.1862352,0.44
-1.9639492,12.691867,0.18625695,0.43
-2.0064142,12.695881,0.18627864,0.44
-2.046869,12.692894,0.18630056,0.43
-2.0873299,12.686907,0.18632309,0.44
-2.128782,12.69092,0.1863445,0.45
-2.1692462,12.682934,0.18636756,0.45
-2.1914666,12.695941,0.18637723,0.41
-2.2319303,12.687955,0.1864004,0.41
-2.2723796,12.686968,0.18642245,0.43
-2.315839,12.696982,0.18644428,0.44
-2.3532946,12.676994,0.18646818,0.62
-2.4067428,12.743011,0.18548585,0.6
-1.765209,8.820826,0.19282268,0.32
-1.7794341,8.82083,0.1928306,0.13
-2.5403504,12.679058,0.18657082,0.45
-2.5848114,12.6910715,0.18559343,0.43
-2.6242743,12.678085,0.18561776,0.42
-2.6647341,12.6711,0.18564169,0.42
-2.7091823,12.687115,0.18566383,0.43
-2.7284164,12.677121,0.18567647,0.44
-2.7688684,12.673135,0.18570007,0.45
-2.8123276,12.679151,0.18572368,0.44
-2.8517828,12.669164,0.18574797,0.43
-2.8942478,12.668178,0.18577243,0.44
-2.8667865,12.345172,0.18681517,0.44
-2.9012568,12.313185,0.18684086,0.59
-2.9244835,12.325192,0.18685211,0.4
-2.9669373,12.332208,0.18687543,0.43
-3.0034041,12.31022,0.18690068,0.44
-3.040863,12.295233,0.1869253,0.57
-3.1692162,12.672274,0.18593112,0.4
-3.2096775,12.663288,0.18595655,0.41
-3.229898,12.662295,0.18596865,0.47
-3.2823453,12.703313,0.18599203,0.66
-3.308819,12.637323,0.18601999,0.34
-2.3803406,8.694043,0.19320258,0.34
-2.4118025,8.701055,0.19322027,0.19
-2.4392679,8.692065,0.19323862,0.32
-2.469729,8.695076,0.19325656,0.16
-3.5008752,12.638392,0.18613474,0.27
-3.538343,12.616406,0.18616153,0.37
-3.5808055,12.613422,0.18618785,0.37
-3.626249,12.626438,0.18621302,0.37
-3.6677122,12.619453,0.18623966,0.38
-3.7081707,12.610468,0.18626615,0.37
-3.7546215,12.623485,0.1862922,0.36
-3.7748618,12.615493,0.18630621,0.36
-3.8163168,12.610508,0.18633278,0.37
-3.859776,12.610523,0.1863597,0.36
-3.8992288,12.599538,0.18638636,0.36
-3.9416897,12.595553,0.18641363,0.37
-3.9891446,12.608572,0.18644078,0.36
-4.02861,12.593586,0.1864685,0.37
-4.0518365,12.598595,0.18648213,0.37
-4.0962877,12.602612,0.18650939,0.36
-4.137749,12.594627,0.1865372,0.36
-4.181199,12.595643,0.1865646,0.36
-4.2286644,12.603661,0.18659323,0.36
-4.267122,12.587676,0.18662101,0.36
-4.3075814,12.576691,0.18664916,0.37
-4.336808,12.597701,0.18666372,0.36
-4.374265,12.578716,0.18669167,0.37
-4.4197273,12.580734,0.18672064,0.36
-4.4621763,12.57775,0.18674876,0.36
-4.503641,12.567765,0.18677776,0.36
-4.5491004,12.569783,0.18680699,0.36
-4.596553,12.578801,0.1868362,0.36
-4.6177893,12.573809,0.18685114,0.36
-4.6622357,12.575827,0.18687995,0.36
-4.705698,12.570844,0.18690963,0.36
-4.751157,12.57186,0.1869395,0.36
-4.790613,12.557877,0.18696858,0.36
-4.83607,12.558894,0.1869986,0.35
-4.885522,12.570913,0.18702908,0.29
-5.000684,12.818952,0.18605381,0.39
-4.950219,12.559938,0.18707474,0.19
-4.9986653,12.569957,0.18710518,0.21
-5.0401263,12.558974,0.18713547,0.19
-5.0875893,12.561993,0.18716693,0.21
-5.130051,12.553009,0.18719766,0.19
-5.178496,12.562029,0.18722866,0.21
-5.203726,12.567038,0.18724477,0.2
-5.248184,12.563056,0.18727602,0.21
-5.2966423,12.568075,0.18730813,0.18
-5.3391094,12.557093,0.1863397,0.31
-5.3835697,12.55211,0.18637143,0.2
-5.4300222,12.553128,0.18640332,0.18
-5.47448,12.548146,0.18643522,0.3
-5.4967113,12.545156,0.18645133,0.2
-5.5131907,12.473164,0.1874788,0.22
-5.498688,12.330163,0.18750058,0.25
-5.493184,12.209164,0.18752383,0.2
-5.4926734,12.102168,0.18754753,0.41
-5.493165,11.998171,0.18757138,0.25
-5.492654,11.894174,0.18759461,0.25
-5.470912,11.794168,0.18860199,0.27
-5.4713936,11.696172,0.1886247,0.23
-5.615276,11.816227,0.1876996,0.58
-5.466865,11.39218,0.18869144,0.23
-5.471353,11.306185,0.18871462,0.26
-5.4628453,11.194185,0.18873462,0.22
-5.5660205,11.369222,0.18876807,0.0
-12.614621,26.274609,0.16536355,0.0
-12.703083,26.246645,0.16443342,0.11
-4.732015,9.345948,0.19164054,0.18
-4.7344966,9.274953,0.1926593,0.18
-4.7269807,9.184953,0.19267538,0.13
-4.725463,9.107955,0.1926928,0.17
-4.722711,9.064956,0.19270116,0.0
-4.7081966,8.963954,0.19271493,0.11
-4.6826906,8.841948,0.19272576,0.18
-4.624212,8.65493,0.1927281,0.1
-4.6781335,8.625955,0.19277543,0.52
-4.697605,8.595964,0.19379742,0.7
-4.65586,8.482951,0.19379422,0.51
-4.7003107,8.50297,0.19382262,0.17
-4.7267814,8.486981,0.19384655,0.56
-4.7772336,8.517002,0.19387707,0.16
-4.7797074,8.4570055,0.19389409,0.15
-4.696234,8.2369795,0.19388658,0.31
-4.6927223,8.166982,0.19390175,0.5
-4.6879587,8.127981,0.1939081,0.29
-4.6764407,8.0459795,0.19392033,0.5
-4.6879153,8.005986,0.19393942,0.34
-4.6743984,7.9219847,0.19395079,0.63
-4.776822,8.046023,0.19399734,0.0
-5.1520925,8.653158,0.19312823,0.0
-5.188554,8.653174,0.19315636,0.0
-5.202794,8.64518,0.19316946,0.0
-5.2372513,8.642196,0.19319691,0.0
-5.2827015,8.658215,0.19322795,0.0
-5.3111634,8.644228,0.19325379,0.0
-5.3466363,8.640244,0.1932825,0.04
-5.408071,8.683269,0.193319,0.07
-5.435788,8.634283,0.19335386,0.59
-5.541688,8.686328,0.19342306,0.58
-5.539168,8.62033,0.19343904,0.22
-5.642069,8.665374,0.19350816,0.59
-5.6755347,8.657389,0.19353694,0.7
-5.702761,8.670401,0.193555,0.68
-5.73322,8.658415,0.1935826,0.68
-5.7686834,8.653431,0.19361229,0.7
-5.811134,8.660449,0.1936443,0.66
-5.8475976,8.6564665,0.19367467,0.64
-5.8830647,8.650482,0.19370484,0.65
-5.9082828,8.660493,0.1927223,0.64
-5.9417553,8.650508,0.19275212,0.65
-5.9812093,8.651526,0.19278371,0.66
-6.0216727,8.652544,0.19281617,0.65
-6.053135,8.640559,0.19284514,0.59
-6.0926,8.639578,0.19287749,0.56
-6.131059,8.637595,0.19290939,0.57
-6.1472945,8.631602,0.19292438,0.49
-6.191747,8.638622,0.19295865,0.58
-6.2312055,8.637641,0.19299124,0.59
-6.2616744,8.622656,0.19302063,0.6
-6.304131,8.625675,0.19305463,0.62
-6.3465934,8.627694,0.19308901,0.62
-6.3790483,8.61671,0.19311905,0.61
-6.415515,8.609727,0.1931513,0.62
-6.4477415,8.625741,0.19317318,0.61
-6.4812045,8.614758,0.19320422,0.62
-6.520658,8.612775,0.1932376,0.63
-6.566118,8.617796,0.19327393,0.61
-6.601574,8.609813,0.19330592,0.61
-6.6440463,8.608832,0.19334172,0.69
-6.690501,8.614854,0.19337876,0.68
-6.7057333,8.606861,0.19339399,0.67
-6.748193,8.606881,0.19342963,0.67
-6.7926536,8.608901,0.19346641,0.69
-6.8301144,8.601919,0.19350015,0.69
-6.8735776,8.601939,0.19353683,0.68
-6.915035,8.599959,0.19357252,0.68
-6.943257,8.608972,0.19359359,0.66
-6.979726,8.5989895,0.19362767,0.67
-7.057163,8.643023,0.19267952,0.59
-7.2435656,8.823096,0.19278099,0.42
-7.2940264,8.829121,0.19282208,0.43
-7.334484,8.823139,0.19285855,0.44
-7.367954,8.807157,0.19289231,0.43
-7.4011855,8.819171,0.19291691,0.43
-7.4466376,8.819193,0.1929559,0.41
-7.4861045,8.810212,0.19299272,0.42
-7.53056,8.808233,0.19303164,0.43
-7.570023,8.799252,0.1930686,0.43
-7.622485,8.805277,0.19311194,0.43
-7.664949,8.799297,0.19315065,0.41
-7.694173,8.806312,0.19317365,0.41
-7.74163,8.806334,0.1932148,0.43
-7.784097,8.799354,0.19325404,0.43
-7.8315506,8.7993765,0.19329533,0.43
-7.873021,8.790397,0.1933345,0.42
-7.9194784,8.788419,0.19237573,0.42
-7.962939,8.782441,0.19241577,0.41
-7.9951634,8.791455,0.19244094,0.43
-8.048629,8.795481,0.19248645,0.43
-8.088079,8.7855,0.19252451,0.43
-8.13155,8.777522,0.19256549,0.54
-8.183006,8.779547,0.19261013,0.4
-8.233467,8.779571,0.19265465,0.41
-8.27493,8.769591,0.19269477,0.41
-8.313155,8.783608,0.19272372,0.42
-8.353615,8.772629,0.1927634,0.53
-8.409078,8.776655,0.19281122,0.38
-8.453543,8.768678,0.19285354,0.52
-8.509999,8.7737055,0.19290203,0.39
-8.544459,8.755723,0.19293912,0.62
-8.540949,8.695726,0.19295731,0.62
-8.520194,8.64672,0.19295622,0.61
-8.520672,8.592726,0.19297595,0.64
-8.552144,8.570744,0.19301206,0.73
-8.572616,8.537756,0.19304232,0.71
-8.619077,8.531779,0.19308627,0.67
-8.665535,8.525803,0.19313027,0.68
-8.716,8.522827,0.19317688,0.69
-8.749224,8.529842,0.19320431,0.7
-8.798684,8.525867,0.19325048,0.68
-8.85015,8.522893,0.19329815,0.69
-8.902604,8.521918,0.19334605,0.69
-8.956074,8.519945,0.19339533,0.7
-8.999528,8.509967,0.19343854,0.69
-9.052991,8.507994,0.19348794,0.7
-9.086223,8.513009,0.19351636,0.67
-9.135684,8.507035,0.19356371,0.68
-9.190151,8.505062,0.19261423,0.7
-9.245603,8.505089,0.19266495,0.69
-9.295066,8.498115,0.1927129,0.67
-9.343529,8.490139,0.1927604,0.67
-9.393988,8.484163,0.19280902,0.68
-9.440222,8.499186,0.19284578,0.69
-9.494672,8.497212,0.19289665,0.68
-9.544142,8.488238,0.19294569,0.66
-9.600602,8.486266,0.19299856,0.68
-9.659065,8.485295,0.19305295,0.7
-9.712523,8.480322,0.19310436,0.66
-9.749747,8.48734,0.19313608,0.66
-9.807213,8.484368,0.19319052,0.68
-9.863668,8.481398,0.19324408,0.68
-9.916136,8.473424,0.19329599,0.68
-9.973594,8.470453,0.19335063,0.67
-10.028062,8.463481,0.19340414,0.68
-10.085524,8.45951,0.19245933,0.68
-10.130751,8.471532,0.19249675,0.67
-10.188215,8.46656,0.19255245,0.66
-10.245678,8.46159,0.19260821,0.67
-10.30113,8.455619,0.19266258,0.65
-10.364595,8.45465,0.1927225,0.65
-10.429062,8.453683,0.19278343,0.64
-10.477521,8.440708,0.19283429,0.66
-10.530745,8.457733,0.19287741,0.63
-10.607198,8.466771,0.1929457,0.64
-10.647664,8.445793,0.1929925,0.65
-10.711138,8.441826,0.19305405,0.66
-10.776593,8.440859,0.19311632,0.69
-10.794066,8.400872,0.19314946,0.41
-10.83654,8.379896,0.19319846,0.57
-11.161682,8.611034,0.19241011,0.32
-11.206146,8.59106,0.19246067,0.53
-11.283605,8.596097,0.19253212,0.32
-11.343065,8.587129,0.19259244,0.44
-11.409524,8.583162,0.19265738,0.34
-11.46399,8.569192,0.19271521,0.52
-11.550449,8.579235,0.19279341,0.33
-11.578686,8.572249,0.19282337,0.52
-11.650139,8.571286,0.19289204,0.32
-11.725605,8.571323,0.19196421,0.54
-11.791065,8.564358,0.1920299,0.32
-11.85053,8.552389,0.19209206,0.52
-11.95099,8.569439,0.19218107,0.31
-11.995451,8.546464,0.19223376,0.51
-12.065673,8.569497,0.19229123,0.31
-12.122142,8.553528,0.19235252,0.52
-12.201606,8.553569,0.19242902,0.32
-12.260074,8.5386,0.19249196,0.5
-12.348522,8.545644,0.1925742,0.31
-12.405994,8.528675,0.19263722,0.5
-12.493449,8.533719,0.19171953,0.3
-12.547679,8.542746,0.19176798,0.55
-12.601146,8.522776,0.19182865,0.47
-12.686611,8.523819,0.19191101,0.42
-12.769064,8.523861,0.19199097,0.41
-12.837529,8.5128975,0.19206238,0.41
-12.912996,8.505938,0.19213887,0.42
-12.990461,8.499978,0.19221693,0.42
-13.050681,8.512007,0.19227009,0.41
-13.129145,8.506048,0.19234923,0.34
-13.2176,8.507093,0.192435,0.43
-13.295068,8.499134,0.19251424,0.35
-13.370532,8.490174,0.19159205,0.43
-13.456997,8.487219,0.19167794,0.41
-13.53246,8.477259,0.19175638,0.39
-13.598685,8.490292,0.1918152,0.41
-13.683146,8.485335,0.19190024,0.39
-13.7676115,8.47938,0.19198583,0.38
-13.847074,8.470422,0.19206801,0.44
-13.940534,8.46947,0.19216025,0.36
-14.021997,8.460514,0.19224454,0.38
-14.125457,8.464566,0.19134443,0.38
-14.196679,8.4786005,0.19140792,0.36
-14.237151,8.443626,0.19146432,0.39
-14.236635,8.383634,0.19149229,0.45
-14.246119,8.329646,0.19152734,0.35
-14.226608,8.258645,0.19154195,0.52
-14.305076,8.2456875,0.19162571,0.3
-14.456283,8.304758,0.1917469,0.5
-14.540745,8.294803,0.19183527,0.49
-14.6362095,8.289853,0.19193219,0.5
-14.723677,8.2799,0.19202368,0.5
-14.825136,8.277952,0.19212525,0.48
-14.920596,8.272003,0.19222288,0.47
-15.015058,8.265053,0.1913201,0.48
-15.10128,8.283095,0.19139697,0.48
-15.199749,8.276147,0.19149828,0.46
-15.301211,8.2712,0.19160166,0.45
-15.399672,8.264253,0.19170313,0.44
-15.50714,8.260309,0.19181217,0.45
-15.599599,8.249358,0.19190979,0.44
-15.668068,8.224398,0.1919905,0.59
-15.614326,8.164377,0.1919667,0.38
-15.845761,8.225491,0.19116741,0.46
-31.089787,16.185318,0.1764271,0.27
-31.160282,16.098366,0.17654072,0.46
-31.304758,16.050447,0.17670894,0.38
-31.491224,16.023548,0.17590879,0.14
-31.703686,16.008661,0.17612877,0.08
-31.696945,15.942667,0.1761552,0.0
-31.713453,15.826691,0.1762301,0.0
-31.684969,15.689695,0.17627071,0.0
-31.68048,15.56471,0.17632946,0.0
-31.682991,15.442729,0.1763939,0.07
-31.685501,15.321747,0.17645799,0.09
-31.030407,14.8224745,0.17805465,0.31
-31.027912,14.703491,0.1781131,0.32
-31.033422,14.58751,0.17817822,0.33
-31.031933,14.468527,0.178238,0.39
-31.233397,14.445634,0.1784528,0.0
-30.617037,14.04137,0.17904072,0.0
-30.541561,13.891352,0.17904246,0.0
-30.517818,13.82335,0.17905387,0.0
-30.51133,13.705363,0.17910881,0.0
-30.539835,13.603393,0.17919089,0.0
-30.504347,13.474393,0.17922258,0.06
-15.144808,6.44738,0.19437823,0.99
-15.047069,6.377339,0.19431637,0.89
-15.253515,6.411442,0.19350778,0.54
-15.348985,6.3964944,0.19361275,0.31
-30.55464,12.763522,0.18064941,0.28
-30.544155,12.646534,0.18070121,0.27
-30.541662,12.53455,0.1807586,0.32
-30.538168,12.4225645,0.18081512,0.33
-30.524426,12.361567,0.18083392,0.35
-30.519936,12.248581,0.18089017,0.37
-30.52444,12.140599,0.18095301,0.38
-30.531946,12.033619,0.18101852,0.35
-30.51946,11.91863,0.18106814,0.35
-30.521965,11.810646,0.18112938,0.36
-30.524477,11.701665,0.18119131,0.48
-30.62471,11.68672,0.18130167,0.28
-30.867176,11.669849,0.18155822,0.32
-30.911678,11.576887,0.18165457,0.36
-30.918186,11.469907,0.18171996,0.33
-30.924692,11.362926,0.1817855,0.48
-29.429455,10.703241,0.1836214,0.26
-30.894463,11.187938,0.18185118,0.31
-29.722164,10.654403,0.18294775,0.2
-30.87648,10.964961,0.18195635,0.27
-30.914984,10.869996,0.18204857,0.34
-31.022474,10.800064,0.1821976,0.43
-31.18196,10.747156,0.18239051,0.28
-31.200466,10.645182,0.18246655,0.32
-31.192719,10.589187,0.18249,0.34
-31.179228,10.476197,0.18253963,0.35
-31.174742,10.366211,0.18259692,0.35
-31.177252,10.25923,0.18265985,0.31
-31.175756,10.1522455,0.18271878,0.36
-31.16527,10.041257,0.18277088,0.3
-31.172775,9.937277,0.18283762,0.35
-31.162033,9.8802805,0.18285899,0.34
-31.147541,9.76929,0.1839073,0.29
-30.86709,9.575173,0.18372972,0.32
-30.836607,9.460175,0.18376414,0.34
-30.832113,9.354189,0.18382026,0.32
-31.103586,9.331336,0.1841128,0.19
-26.553724,7.8621693,0.18727371,0.13
-30.81739,9.088223,0.18395808,0.18
-30.825895,8.987245,0.18402514,0.34
-30.817408,8.880257,0.18407828,0.35
-30.808918,8.774269,0.18413097,0.36
-30.823423,8.675293,0.1842034,0.36
-30.802935,8.566299,0.1852457,0.36
-30.811443,8.465321,0.18531336,0.36
-30.803696,8.412325,0.1853363,0.38
-30.785206,8.304332,0.18538038,0.36
-30.788717,8.202351,0.18544376,0.37
-30.801224,8.103374,0.1855148,0.36
-30.790733,7.9983845,0.18556571,0.36
-30.787243,7.8953996,0.1856228,0.36
-30.7785,7.842404,0.18564504,0.36
-30.759012,7.73541,0.18568814,0.36
-30.761515,7.635428,0.18574993,0.32
-30.774027,7.536451,0.1858216,0.45
-30.98251,7.4865694,0.18606693,0.35
-31.29998,7.461741,0.18541022,0.26
-31.48947,7.4038506,0.18564087,0.43
-31.972673,7.466096,0.1851039,0.21
-32.341145,7.447294,0.18549663,0.32
-32.705616,7.4244905,0.18488774,0.31
-33.07109,7.400687,0.18528058,0.31
-33.38557,7.36286,0.18462911,0.15
-35.313885,7.6768274,0.18343823,0.11
-35.306396,7.560843,0.1835004,0.23
-35.30866,7.5038533,0.18353716,0.31
-35.342167,7.395889,0.18363717,0.48
-35.461678,7.3059673,0.18381554,0.34
-35.89515,7.2802005,0.18328075,0.29
-36.325626,7.250433,0.18374538,0.29
-36.7841,7.22368,0.18323733,0.28
-37.248577,7.19593,0.18273622,0.25
-39.273647,7.5269465,0.18163583,0.2
-39.327168,7.409994,0.18176281,0.32
-39.31669,7.28201,0.18183026,0.36
-39.373203,7.166059,0.18196,0.4
-39.7367,7.105262,0.18237479,0.2
-40.277172,7.0735526,0.1819556,0.26
-41.57259,7.169222,0.18124233,0.2
-43.65821,7.3212996,0.18031532,0.51
-43.753735,7.197371,0.17949115,0.2
-43.927254,7.0854816,0.17974073,0.33
-44.626724,7.056856,0.1794855,0.19
-45.3152,7.0222263,0.17922269,0.32
-45.890694,6.96554,0.17885624,0.15
-47.802822,7.1815157,0.17770995,0.37
-47.84136,7.0345607,0.17784156,0.32
-48.132874,6.9247336,0.17821325,0.19
-48.96235,6.8891783,0.17809819,0.15
-49.636845,6.8265457,0.17783897,0.31
-60.957638,8.198304,0.17075653,0.25
-60.952198,8.003334,0.1708731,0.2
-60.92648,7.9033375,0.1709091,0.18
-60.922035,7.7093678,0.17102635,0.3
-60.910595,7.515394,0.1711365,0.2
-60.90815,7.3224254,0.17125554,0.18
-60.913708,7.1304603,0.17138246,0.3
-60.887268,6.934479,0.17147876,0.13
-40.63792,4.4921784,0.18394437,0.16
-60.868103,6.6445184,0.17164236,0.09
-60.88866,6.454561,0.1717842,0.0
-61.400196,6.3148556,0.17240553,0.0
-63.141666,6.29578,0.17123106,0.0
-51.89276,5.008046,0.17733644,0.0
-66.367645,6.200503,0.16965131,0.0
-66.97618,6.046851,0.16938317,0.0
-68.74539,6.0987782,0.16819273,0.0
-70.44689,6.027691,0.16801047,0.0
-72.143394,5.9466014,0.16682956,0.0
-73.91891,5.8605556,0.16573429,0.0
-76.46439,5.8229084,0.16441026,0.0
-78.211914,5.710852,0.16430286,0.0
-79.97944,5.588808,0.16322288,0.0
-62.883434,3.90005,0.17349795,0.0
-62.592003,3.6869318,0.17333199,0.0
-62.649567,3.493995,0.17351684,0.0
-78.82938,3.0386322,0.16567515,0.0
-78.50172,-9.217861,-7.669701e-05,0.0
-78.51005,-9.470823,-7.755793e-05,0.0
-62.250717,-8.415402,0.041865926,0.0
-62.22808,-8.612356,0.041896377,0.0
-48.58857,-7.7552867,0.078116834,0.0
-48.492966,-7.898212,0.07822236,0.0
-48.46716,-7.9721856,0.07825224,0.0
-48.55054,-8.144201,0.07817187,0.0
-70.77602,-12.080293,0.020089997,0.0
-68.29259,-11.880013,0.02567813,0.0
-66.76708,-11.833214,0.03027094,0.0
-66.670456,-12.034129,0.030379616,0.0
-64.02406,-11.767775,0.037136015,0.06
-40.18445,-7.471887,0.098894104,0.13
-40.02987,-7.5747876,0.10006029,0.14
-39.982273,-7.696742,0.100115396,0.15
-40.093666,-7.850775,0.10000555,0.12
-58.414265,-11.602836,0.05199578,0.14
-58.40364,-11.792798,0.051014617,0.0
-58.404827,-11.888783,0.051017296,0.0
-35.009586,-7.267183,0.11230152,0.0
-34.930008,-7.3671236,0.11338946,0.0
-34.866425,-7.4690733,0.11346079,0.0
-34.809837,-7.573025,0.11352491,0.0
-34.796246,-7.684999,0.11354439,0.13
-58.35708,-13.036568,0.051114883,0.21
-49.0273,-11.044966,0.075794384,0.18
-48.50675,-11.089683,0.07734126,0.1
-47.714233,-11.069267,0.07917008,0.15
-46.966705,-11.052875,0.08095204,0.23
-46.201187,-11.028474,0.082752556,0.1
-45.485664,-11.011098,0.084501095,0.15
-44.76515,-10.988721,0.08625471,0.12
-44.126423,-10.907397,0.08792003,0.16
-43.432903,-10.883035,0.08964538,0.12
-42.79438,-10.867699,0.091313586,0.18
-42.191853,-10.858382,0.09294442,0.3
-41.60233,-10.849072,0.09456169,0.2
-40.978806,-10.825747,0.09621398,0.18
-40.34729,-10.797418,0.09787448,0.34
-39.867554,-10.737174,0.09937444,0.23
-39.32003,-10.724887,0.100947745,0.18
-38.8085,-10.718617,0.10148366,0.39
-38.30297,-10.711351,0.103013255,0.23
-37.811447,-10.704093,0.10452824,0.14
-29.518976,-8.478074,0.1261162,0.46
-36.817394,-10.677572,0.10656929,0.25
-36.370663,-10.611347,0.10803457,0.29
-35.921135,-10.60511,0.10950572,0.27
-35.471607,-10.596874,0.109976806,0.29
-35.013084,-10.5816345,0.11145703,0.29
-34.57256,-10.569404,0.112918556,0.29
-34.17703,-10.568194,0.113333456,0.29
-33.7485,-10.55397,0.11478235,0.27
-33.361767,-10.492776,0.116185114,0.3
-32.985237,-10.490578,0.116580114,0.29
-32.59071,-10.4803705,0.11799364,0.32
-32.20918,-10.47117,0.1183936,0.29
-31.840656,-10.464978,0.11978009,0.25
-31.363144,-10.419733,0.12127907,0.18
-30.77986,-10.3904295,0.12288992,0.3
-30.440332,-10.385251,0.123246126,0.26
-30.184792,-10.406113,0.12351549,0.35
-30.17121,-10.508089,0.12353489,0.36
-30.164629,-10.613069,0.12354708,0.36
-30.160048,-10.71905,0.12355722,0.37
-30.168257,-10.776045,0.12355146,0.38
-30.158678,-10.881023,0.12356677,0.36
-30.153095,-10.987004,0.12357793,0.36
-30.151516,-11.094986,0.12358497,0.41
-30.149935,-11.202968,0.123592004,0.45
-28.82558,-10.82033,0.12696372,0.34
-28.959978,-10.975377,0.12683032,0.25
-28.778429,-11.011275,0.1270228,0.35
-26.868975,-10.338374,0.13199475,0.16
-28.462116,-11.047103,0.12835681,0.35
-28.457537,-11.149085,0.1283667,0.31
-28.40197,-11.232043,0.12842917,0.35
-28.519371,-11.383081,0.12731333,0.29
-28.498793,-11.479055,0.12733968,0.31
-28.651976,-11.593119,0.12718439,0.32
-28.697388,-11.717123,0.12714274,0.18
-30.098545,-12.393756,0.12270414,0.4
-30.085968,-12.500733,0.12272246,0.3
-30.089384,-12.613718,0.12272426,0.23
-30.33176,-12.827813,0.122479945,0.58
-27.625694,-11.798547,0.12927221,0.23
-27.859863,-11.949647,0.12903355,0.28
-30.087849,-13.006658,0.12274438,0.2
-30.071272,-13.112633,0.12276672,0.3
-30.06769,-13.224614,0.12277567,0.33
-30.044115,-13.328587,0.12280521,0.32
-30.05453,-13.446574,0.12279969,0.3
-30.039951,-13.554551,0.12281991,0.35
-30.04616,-13.614546,0.12281612,0.39
-30.045576,-13.728528,0.12282189,0.35
-30.037,-13.8405075,0.12283592,0.48
-29.310568,-13.622158,0.124588326,0.25
-28.889072,-13.538949,0.12502687,0.36
-28.801514,-13.609894,0.1261219,0.32
-28.839926,-13.739894,0.12508735,0.29
-28.72116,-13.739833,0.12621196,0.35
-28.644596,-13.814781,0.12629557,0.34
-28.713003,-13.959796,0.12523013,0.28
-28.480474,-13.959675,0.12647401,0.3
-28.4479,-14.055644,0.1265123,0.32
-28.730259,-14.306755,0.12522693,0.29
-28.54772,-14.329657,0.12541929,0.27
-30.174566,-15.196382,0.12175009,0.24
-30.172985,-15.315364,0.12075663,0.41
-30.061428,-15.379296,0.12187614,0.0
-30.194817,-15.56734,0.12074399,0.12
-30.143663,-15.783282,0.12080618,0.39
-30.142082,-15.904265,0.120812595,0.38
-30.148285,-15.967259,0.12080856,0.38
-30.12771,-16.079233,0.12083444,0.4
-18.377872,-9.952971,0.15390097,0.35
-29.912596,-16.209103,0.1210646,0.33
-29.897017,-16.323078,0.121085204,0.29
-29.906433,-16.451067,0.121080115,0.32
-29.90585,-16.574049,0.12108526,0.35
-29.931053,-16.650051,0.12106167,0.36
-29.922472,-16.76903,0.12107495,0.33
-29.91689,-16.89001,0.121085115,0.45
-17.609325,-10.09355,0.1547146,0.22
-17.459795,-10.082474,0.15587114,0.36
-17.199293,-10.007347,0.15614145,0.39
-17.041555,-9.954273,0.1563048,0.37
-16.993,-9.998241,0.15635766,0.41
-16.898462,-10.016191,0.15745766,0.38
-16.837915,-10.053153,0.15752275,0.44
-16.75537,-10.076107,0.15761034,0.38
-16.604849,-10.060031,0.15776762,0.5
-16.5463,-10.096995,0.15783057,0.24
-16.513527,-10.112976,0.15786558,0.48
-16.457983,-10.151942,0.15792541,0.36
-16.423422,-10.201918,0.15796362,0.46
-16.416868,-10.270905,0.15797319,0.27
-16.380308,-10.31988,0.15801339,0.5
-16.353752,-10.375857,0.15804334,0.35
-15.2005,-9.727347,0.1612276,0.39
-15.105741,-9.701302,0.16132596,0.41
-14.998211,-9.701245,0.16143872,0.53
-14.898676,-9.705193,0.16154322,0.4
-14.773145,-9.69113,0.16267428,0.53
-14.680614,-9.699081,0.16277155,0.4
-14.580079,-9.700028,0.16287695,0.42
-14.476548,-9.698976,0.16298537,0.41
-14.38679,-9.672933,0.16307847,0.41
-14.3362465,-9.705902,0.16313258,0.42
-14.239714,-9.707851,0.16323374,0.41
-14.126185,-9.697794,0.16335227,0.48
-14.033649,-9.700747,0.16444923,0.44
-13.927126,-9.694692,0.16456053,0.48
-13.83759,-9.698646,0.16465434,0.46
-13.995765,-9.839708,0.1634935,0.0
-13.651301,-9.667553,0.16484822,0.0
-7.442428,-5.410898,0.18320529,0.0
-7.4478664,-5.449896,0.18320148,0.0
-7.3183503,-5.3948355,0.1833358,0.0
-7.1858377,-5.3367743,0.18347317,0.0
-7.1070886,-5.2987385,0.18355463,0.07
-7.0735483,-5.3097196,0.18359068,0.14
-7.0430074,-5.3227015,0.18362363,0.3
-7.0234656,-5.3436885,0.18364531,0.21
-6.9779315,-5.3456645,0.18369356,0.17
-6.94539,-5.356646,0.18372849,0.44
-6.8918505,-5.351619,0.18378487,0.24
-6.8470864,-5.3355975,0.18483147,0.21
-6.8195553,-5.350581,0.18486126,0.15
-6.795009,-5.366566,0.18488793,0.31
-6.7734723,-5.3855524,0.18491152,0.22
-6.7519364,-5.4045386,0.18493511,0.21
-6.731378,-5.422526,0.1849576,0.37
-6.712851,-5.444513,0.18497808,0.21
-6.681074,-5.4364977,0.1850113,0.14
-6.631547,-5.433472,0.18506344,0.0
-6.5440197,-5.399431,0.18515441,0.0
-6.4565015,-5.3653903,0.18524538,0.0
-6.419959,-5.3703704,0.18528415,0.0
-6.409415,-5.396362,0.18529631,0.0
-6.4198647,-5.4393616,0.18528697,0.0
-6.420097,-5.4573593,0.18528742,0.0
-6.4055533,-5.480349,0.18530361,0.0
-6.41001,-5.5193458,0.18530035,0.0
-6.388463,-5.5363326,0.18532366,0.0
-6.4003706,-5.6173286,0.18531395,0.0
-6.3905916,-5.6263227,0.18532455,0.0
-6.383042,-5.655315,0.18533345,0.0
-6.3804994,-5.689309,0.18533722,0.0
-6.3839636,-5.729306,0.18533485,0.0
-6.356417,-5.7412906,0.18536413,0.0
-6.369867,-5.7892914,0.18535146,0.0
-6.373324,-5.829289,0.18534899,0.0
-6.3615527,-5.8372817,0.18536155,0.0
-6.3630037,-5.875278,0.18536109,0.0
-6.361461,-5.9112725,0.18536367,0.0
-6.3449125,-5.9332614,0.18538156,0.0
-6.3423533,-5.9672565,0.18538511,0.0
-6.3478107,-6.010254,0.18538044,0.0
-6.339265,-6.040246,0.18439007,0.0
-6.332496,-6.053241,0.18439744,0.0
-6.3379474,-6.0962386,0.18439269,0.0
-6.3354015,-6.132233,0.18439612,0.0
-6.311866,-6.149219,0.18442102,0.0
-6.333305,-6.2072234,0.18439978,0.0
-6.31976,-6.2332134,0.18441439,0.0
-6.318206,-6.270209,0.18441665,0.0
-6.328437,-6.3002105,0.18440652,0.0
-6.3138876,-6.3252,0.18442206,0.0
-6.313339,-6.364196,0.18442322,0.0
-6.3108,-6.40219,0.18442641,0.0
-6.298258,-6.4301805,0.18443982,0.04
-9.319321,-9.515369,0.17434172,0.41
-9.259786,-9.51534,0.17540275,0.51
-9.207257,-9.5233135,0.17545655,0.5
-9.144721,-9.519283,0.17552058,0.51
-9.081196,-9.515251,0.1755856,0.5
-9.027661,-9.520225,0.17564033,0.52
-8.965126,-9.515194,0.17570427,0.52
-8.922367,-9.501174,0.17574804,0.5
-8.867833,-9.504148,0.17580372,0.52
-8.809304,-9.5031185,0.17586346,0.52
-8.746774,-9.497088,0.1759273,0.52
-8.699235,-9.506063,0.17597568,0.5
-8.635704,-9.498034,0.17604049,0.52
-8.595946,-9.486015,0.17608108,0.5
-8.542413,-9.487988,0.17613555,0.5
-8.485884,-9.48696,0.17619307,0.48
-8.430349,-9.485934,0.17624955,0.5
-8.379813,-9.489908,0.17630085,0.5
-8.322287,-9.48688,0.1773593,0.51
-8.248759,-9.464848,0.1774342,0.71
-8.213995,-9.455831,0.1774696,0.45
-5.037642,-5.967596,0.1877406,0.39
-4.9941044,-5.9555755,0.18778543,0.24
-4.959578,-5.9545584,0.18782096,0.35
-4.9280486,-5.9565425,0.18785337,0.33
-4.9115024,-5.9745326,0.18787032,0.32
-4.8969636,-5.995523,0.18788517,0.4
-4.876188,-5.9895134,0.18790652,0.43
-4.855663,-6.0045013,0.1879275,0.4
-4.838119,-6.0214915,0.18794538,0.38
-4.832569,-6.052486,0.18795085,0.39
-4.820035,-6.076477,0.18796349,0.41
-4.8094826,-6.1014695,0.18797405,0.36
-4.8129497,-6.1454673,0.18797007,0.33
-4.8171687,-6.169467,0.18796551,0.26
-4.809625,-6.1994605,0.18797286,0.16
-7.429016,-9.436451,0.17926195,0.27
-7.38348,-9.44043,0.17930752,0.5
-7.3379464,-9.4444065,0.17935304,0.5
-7.2854223,-9.440382,0.17940575,0.49
-7.2468843,-9.452363,0.17944397,0.5
-7.211121,-9.437346,0.17948017,0.48
-7.161597,-9.436322,0.17952968,0.49
-7.1090603,-9.429298,0.17958236,0.5
-7.0615296,-9.4292755,0.17962979,0.5
-7.0209975,-9.438256,0.1796699,0.48
-6.9764557,-9.440234,0.1797142,0.48
-6.9279265,-9.438211,0.17976256,0.48
-6.885173,-9.413193,0.17980595,0.48
-6.838643,-9.413171,0.17985219,0.5
-6.7981057,-9.420151,0.1798922,0.51
-6.7515726,-9.419129,0.1799384,0.51
-6.7080407,-9.422108,0.17998146,0.5
-6.657517,-9.416085,0.18003172,0.51
-6.6317396,-9.410072,0.18005747,0.51
-6.5872087,-9.411052,0.18010148,0.52
-6.538686,-9.407029,0.1801496,0.5
-6.4961452,-9.409009,0.18019152,0.51
-6.453622,-9.412989,0.1802333,0.5
-6.410083,-9.412969,0.1812762,0.51
-6.363548,-9.408947,0.18132219,0.51
-6.3337927,-9.398933,0.18135192,0.51
-6.2892623,-9.397914,0.18139574,0.51
-6.2527194,-9.406896,0.18143122,0.49
-6.206193,-9.402874,0.18147705,0.49
-6.156666,-9.393851,0.18152604,0.51
-6.116136,-9.397833,0.18156554,0.52
-6.0883684,-9.38782,0.1815932,0.51
-6.043836,-9.3848,0.1816369,0.5
-6.0013046,-9.38478,0.18167844,0.48
-5.9627666,-9.389762,0.1817158,0.5
-5.9172378,-9.384741,0.18176045,0.51
-5.853716,-9.351714,0.18182404,0.52
-5.813179,-9.352695,0.18186344,0.51
-5.769657,-9.350675,0.18190585,0.51
-5.744882,-9.342665,0.18193035,0.54
-5.7023587,-9.341644,0.18197167,0.55
-5.6598244,-9.338626,0.18201308,0.56
-5.623292,-9.345609,0.18204805,0.55
-5.5807614,-9.342589,0.18208936,0.56
-5.5422277,-9.3455715,0.18212642,0.55
-5.515463,-9.334559,0.18215291,0.54
-5.47094,-9.32854,0.18219623,0.55
-5.432398,-9.329522,0.1822333,0.54
-5.3938713,-9.332504,0.1832702,0.55
-5.3523407,-9.329486,0.18331032,0.54
-5.3118,-9.326468,0.18334943,0.53
-5.2742734,-9.330451,0.18338518,0.54
-5.252512,-9.32744,0.18340622,0.54
-5.2139726,-9.327423,0.18344313,0.53
-5.1734524,-9.326406,0.18348195,0.55
-5.133915,-9.324387,0.18351984,0.56
-5.1023765,-9.336372,0.18354912,0.54
-5.052857,-9.318352,0.18359753,0.51
-5.0163226,-9.321335,0.1836321,0.52
-4.999547,-9.3243265,0.18364784,0.52
-4.9570155,-9.316309,0.18368882,0.48
-4.945472,-9.364302,0.18369634,0.47
-4.9359264,-9.416293,0.18370162,0.7
-4.872416,-9.371268,0.18376501,0.16
-4.832873,-9.366251,0.18380275,0.71
-4.802341,-9.380237,0.18383051,0.39
-4.8235445,-9.453242,0.18380502,0.18
-4.739046,-9.3672085,0.18389115,0.39
-4.67353,-9.314183,0.18395685,0.51
-4.6329975,-9.307166,0.18399549,0.47
-4.5894794,-9.296146,0.1840372,0.52
-4.560938,-9.311133,0.18406276,0.54
-4.5164123,-9.296114,0.18410563,0.52
-4.4986396,-9.296106,0.18412225,0.53
-4.463103,-9.2970915,0.18415537,0.52
-4.423581,-9.292074,0.18419266,0.51
-4.3920507,-9.30206,0.18422121,0.5
-4.35751,-9.304045,0.18425317,0.48
-4.315989,-9.294027,0.18429258,0.51
-4.293219,-9.283018,0.18431465,0.54
-4.2636786,-9.295005,0.18434101,0.52
-4.223156,-9.285988,0.18437931,0.53
-4.1886225,-9.287972,0.18441105,0.54
-4.155084,-9.290957,0.18544176,0.53
-4.1145554,-9.279942,0.18548009,0.51
-4.081031,-9.284926,0.1855105,0.5
-4.0652585,-9.28792,0.18552473,0.48
-4.0237308,-9.273903,0.18556415,0.51
-3.9911962,-9.278889,0.18559353,0.52
-3.9606645,-9.288875,0.18562056,0.52
-3.921133,-9.277859,0.18565772,0.53
-3.885608,-9.276843,0.18569025,0.52
-3.8580673,-9.291831,0.18571395,0.52
-3.83131,-9.270821,0.1857403,0.5
-3.7957718,-9.266807,0.18577302,0.48
-3.76524,-9.275793,0.18579987,0.52
-3.7277145,-9.268778,0.18583457,0.46
-3.7121627,-9.310769,0.18584454,0.61
-3.6806338,-9.317756,0.18587233,0.57
-3.655875,-9.2997465,0.18589647,0.58
-3.6253345,-9.306733,0.18592331,0.58
-3.5938082,-9.31372,0.18595098,0.57
-3.556274,-9.303704,0.18598571,0.59
-3.521748,-9.30269,0.1860168,0.57
-3.492213,-9.312677,0.18604222,0.58
-3.456672,-9.305663,0.18607473,0.56
-3.435915,-9.296655,0.18609421,0.58
-3.4033768,-9.297641,0.18612313,0.61
-3.3658576,-9.288626,0.1861575,0.58
-3.333327,-9.290612,0.1861862,0.57
-3.3047774,-9.299601,0.18621057,0.54
-3.268259,-9.292586,0.18624368,0.57
-3.2337296,-9.288571,0.18627466,0.58
-3.2159624,-9.284565,0.1862908,0.58
-3.1844325,-9.288551,0.18631817,0.59
-3.1498969,-9.282538,0.18634926,0.59
-3.1173687,-9.2835245,0.18637773,0.57
-3.0828357,-9.277511,0.18640871,0.58
-3.051305,-9.2804985,0.18643601,0.6
-3.0335329,-9.274491,0.18645224,0.57
-3.0010037,-9.274478,0.18648066,0.58
-2.9674807,-9.272465,0.18651013,0.56
-2.9369342,-9.274452,0.18653649,0.57
-2.902414,-9.269439,0.18656707,0.57
-2.8718696,-9.271427,0.18659334,0.57
-2.8393505,-9.272413,0.18662137,0.58
-2.8245718,-9.273408,0.18663403,0.58
-2.7900515,-9.267394,0.18666455,0.6
-2.756523,-9.262381,0.18669404,0.58
-2.7249796,-9.260368,0.18672141,0.59
-2.6984475,-9.277358,0.18674216,0.57
-2.663915,-9.267344,0.18677296,0.57
-2.6323829,-9.267332,0.18679993,0.58
-2.6146169,-9.260325,0.18681595,0.57
-2.5840933,-9.265313,0.18684137,0.57
-2.5525556,-9.263301,0.18686847,0.57
-2.5200212,-9.258288,0.18689673,0.56
-2.4884899,-9.257276,0.1869236,0.56
-2.4579613,-9.260264,0.18794905,0.55
-2.427433,-9.263253,0.18797445,0.55
-2.408663,-9.250245,0.18799192,0.56
-2.3791332,-9.256234,0.18801603,0.57
-2.3485992,-9.257222,0.18804157,0.57
-2.3160725,-9.252211,0.18806948,0.56
-2.285536,-9.252199,0.18809503,0.56
-2.254008,-9.250186,0.18812163,0.56
-2.221477,-9.243175,0.18814965,0.57
-2.2077174,-9.251169,0.18816006,0.58
-2.177184,-9.251158,0.18818544,0.54
-2.1456447,-9.245146,0.18821236,0.57
-2.1151168,-9.246134,0.1882375,0.55
-2.085578,-9.248123,0.18826163,0.55
-2.0530567,-9.242111,0.18828923,0.55
-2.0352952,-9.232104,0.18830517,0.55
-2.008751,-9.245095,0.18832523,0.55
-1.9762293,-9.238083,0.18835282,0.54
-1.9466935,-9.240072,0.18837671,0.54
-1.916157,-9.237061,0.18840203,0.55
-1.8866258,-9.240049,0.18842568,0.55
-1.8560975,-9.239038,0.1884506,0.56
-1.8373408,-9.224031,0.18846788,0.55
-1.8087962,-9.227021,0.18849058,0.56
-1.7802612,-9.23301,0.1885128,0.57
-1.748739,-9.228,0.18853891,0.57
-1.719208,-9.229988,0.1885624,0.56
-1.6896805,-9.232978,0.18858567,0.57
-1.6591482,-9.228966,0.18861067,0.58
-1.6433816,-9.223961,0.18862398,0.56
-1.6148428,-9.227951,0.18864618,0.56
-1.5843073,-9.221939,0.18867135,0.56
-1.553784,-9.219929,0.18869588,0.57
-1.5242457,-9.217918,0.18871957,0.55
-1.4947245,-9.221908,0.18874234,0.55
-1.4661905,-9.226897,0.18876413,0.55
-1.4504169,-9.217892,0.18877783,0.54
-1.4218833,-9.222882,0.18879953,0.56
-1.3913637,-9.220871,0.18882376,0.55
-1.3618315,-9.21986,0.18884699,0.54
-1.3332893,-9.220851,0.18886912,0.56
-1.3037676,-9.22384,0.18889166,0.54
-1.2869997,-9.208835,0.18890688,0.55
-1.2574747,-9.209824,0.18892963,0.57
-1.2309275,-9.221815,0.18894841,0.55
-1.1994122,-9.212804,0.18897405,0.56
-1.1698798,-9.209794,0.18899724,0.58
-1.1423438,-9.219784,0.1890169,0.54
-1.1128017,-9.211775,0.1890407,0.53
-1.0832751,-9.210764,0.18906341,0.56
-1.070513,-9.22676,0.18907075,0.57
-1.0389851,-9.20875,0.18909745,0.57
-1.010442,-9.206739,0.18911941,0.56
-0.98192155,-9.216729,0.1891395,0.55
-0.9513858,-9.200719,0.189165,0.57
-0.9218604,-9.1987095,0.18918754,0.55
-0.9090816,-9.206706,0.18919593,0.56
-0.8785576,-9.195695,0.18922052,0.54
-0.85102135,-9.205686,0.18923959,0.57
-0.82248926,-9.208676,0.18926044,0.57
-0.7929565,-9.200666,0.18928365,0.55
-0.7634263,-9.193657,0.18930666,0.55
-0.734904,-9.202647,0.18932639,0.54
-0.7191378,-9.186642,0.18934052,0.55
-0.6915969,-9.193633,0.18935974,0.55
-0.66307044,-9.199624,0.1893798,0.55
-0.6335357,-9.186614,0.18940349,0.54
-0.6040171,-9.185605,0.18942523,0.53
-0.5764806,-9.196596,0.1894436,0.54
-0.56170714,-9.183591,0.18945639,0.53
-0.5331766,-9.185582,0.18947682,0.54
-0.50464725,-9.188572,0.18949701,0.55
-0.47611088,-9.184564,0.18951826,0.55
-0.44658747,-9.176554,0.18954079,0.53
-0.41905865,-9.197545,0.18955725,0.55
-0.39051473,-9.183536,0.18957992,0.55
-0.37476435,-9.172531,0.18959291,0.54
-0.34722978,-9.188522,0.18961002,0.54
-0.31868774,-9.173514,0.18963271,0.55
-0.28916964,-9.167504,0.1896546,0.53
-0.26162976,-9.177496,0.18967248,0.55
-0.23309559,-9.170487,0.18969372,0.54
-0.20456797,-9.174478,0.18971315,0.55
-0.19079988,-9.184474,0.1897212,0.54
-0.161278,-9.166465,0.18974476,0.55
-0.13274689,-9.161456,0.18976547,0.55
-0.105203584,-9.166448,0.18978384,0.54
-0.07667266,-9.159439,0.18980476,0.54
-0.04814491,-9.16243,0.18982401,0.55
-0.034373377,-9.166427,0.18983287,0.55
-0.005843227,-9.157416,0.18985397,0.56
0.022684569,-9.160408,0.18987307,0.54
0.051212475,-9.1654,0.18989179,0.55
0.079741,-9.155391,0.18991287,0.55
0.10826897,-9.158383,0.1899318,0.56
0.1358134,-9.160375,0.18995015,0.56
0.15056974,-9.16437,0.18995948,0.55
0.1781126,-9.154363,0.1899797,0.55
0.20664072,-9.156354,0.18999858,0.55
0.23516771,-9.153345,0.1900182,0.54
0.26369503,-9.152337,0.19003744,0.55
0.2912382,-9.150329,0.19005613,0.57
0.31976485,-9.14832,0.19007541,0.55
0.33452308,-9.154317,0.1900842,0.55
0.36206418,-9.148308,0.1901034,0.54
0.3905911,-9.147301,0.19012237,0.54
0.4191186,-9.147292,0.19014111,0.54
0.44666055,-9.144284,0.19015965,0.55
0.47518873,-9.145277,0.1901781,0.54
0.5037126,-9.140268,0.19019748,0.54
0.5174844,-9.1402645,0.19020642,0.54
0.5460111,-9.139256,0.19022505,0.54
0.57453775,-9.1382475,0.19024362,0.52
0.60307187,-9.145241,0.19026081,0.53
0.6306074,-9.136232,0.19027995,0.53
0.65913314,-9.134224,0.1902985,0.54
0.67389727,-9.1422205,0.19030659,0.53
0.7014418,-9.142213,0.1903241,0.53
0.7299645,-9.137205,0.19034299,0.54
0.75749946,-9.129197,0.19036168,0.53
0.78603256,-9.13319,0.19037898,0.54
0.8145689,-9.139182,0.19039588,0.53
0.8430857,-9.130175,0.19041517,0.54
0.8578571,-9.14117,0.19042256,0.53
0.8843961,-9.125163,0.1904417,0.52
0.9129263,-9.126156,0.1904592,0.51
0.94145846,-9.128148,0.19047649,0.56
0.96998155,-9.12414,0.19049469,0.55
0.998511,-9.124132,0.19051217,0.55
1.0270457,-9.127125,0.1905291,0.54
1.0418078,-9.130121,0.1905376,0.53
1.0703365,-9.129113,0.19055508,0.55
1.0988724,-9.132106,0.19057186,0.54
1.1264011,-9.122099,0.1905901,0.56
1.1549338,-9.123092,0.19060709,0.54
1.1834708,-9.126084,0.19062367,0.54
1.2120045,-9.127077,0.19064052,0.54
1.2257705,-9.123074,0.19064936,0.54
1.2543004,-9.122066,0.19066645,0.55
1.2828283,-9.120059,0.19068363,0.52
1.3123643,-9.129051,0.19069955,0.54
1.3398937,-9.120045,0.19071718,0.54
1.3684179,-9.116037,0.19073449,0.52
1.3821926,-9.1160345,0.19074252,0.53
1.4127127,-9.124026,0.19075894,0.52
1.4392481,-9.11102,0.19077642,0.52
1.4677821,-9.111012,0.19079287,0.5
1.4963217,-9.113006,0.19080895,0.53
1.525838,-9.111999,0.190826,0.53
1.5543839,-9.115992,0.19084163,0.53
1.5681441,-9.109988,0.19085042,0.53
1.5976695,-9.111981,0.19086683,0.54
1.6261977,-9.108974,0.19088341,0.52
1.6557297,-9.1129675,0.19089937,0.52
1.683269,-9.107961,0.1909156,0.53
1.711798,-9.104953,0.190932,0.54
1.7403361,-9.104946,0.19094786,0.54
1.7550943,-9.103944,0.1909562,0.54
1.78462,-9.104936,0.19097236,0.51
1.8131562,-9.1039295,0.19098821,0.52
1.8416928,-9.102923,0.19100401,0.53
1.8712204,-9.103916,0.19101997,0.54
1.8977576,-9.092911,0.19103613,0.53
1.9282862,-9.098904,0.1910517,0.54
1.9460503,-9.113899,0.19105892,0.53
1.9735757,-9.103893,0.19107531,0.54
2.0021083,-9.100886,0.19109108,0.56
2.0326402,-9.10688,0.19110641,0.54
2.0591743,-9.094873,0.1911224,0.52
2.0867062,-9.086867,0.19113824,0.54
2.1064656,-9.107862,0.19114536,0.54
2.131994,-9.089857,0.1911616,0.55
2.161538,-9.093851,0.19117644,0.54
2.1920562,-9.094844,0.1911922,0.55
2.2185972,-9.084838,0.19120754,0.55
2.2481284,-9.084832,0.1912228,0.56
2.265885,-9.094829,0.1912304,0.55
2.2924187,-9.082823,0.1912459,0.53
2.3209555,-9.079816,0.19126095,0.54
2.3554852,-9.098808,0.19127561,0.54
2.380015,-9.077804,0.19129127,0.52
2.4075446,-9.068798,0.19130656,0.53
2.4410782,-9.08379,0.19132112,0.53
2.4676158,-9.072785,0.19133608,0.52
2.485379,-9.082782,0.19134341,0.54
2.5159006,-9.082775,0.19135858,0.53
2.5424304,-9.069769,0.19137368,0.54
2.5719643,-9.068764,0.19138838,0.54
2.6045043,-9.079757,0.19140269,0.54
2.6330297,-9.072751,0.19141766,0.55
2.6467888,-9.066749,0.19142526,0.55
2.6793323,-9.077742,0.19143939,0.54
2.7078674,-9.072736,0.19145392,0.55
2.7363894,-9.06473,0.19146882,0.54
