X,Y,Z,Intensity
19.210253,15.973584,-0.3276841,0.21
19.374014,16.211483,-0.3338012,0.39
19.483755,16.407402,-0.33790508,0.18
19.278387,16.340452,-0.3339194,0.24
19.111034,16.302488,-0.33094296,0.21
18.914665,16.239538,-0.32695806,0.33
19.315517,16.687334,-0.3391511,0.14
18.748165,16.25156,-0.32401732,0.26
18.827898,16.42449,-0.32811493,0.19
18.693556,16.411516,-0.32614723,0.52
21.002129,18.542484,-0.3929404,0.21
18.681961,16.611454,-0.32829282,0.18
19.275896,17.245161,-0.34755716,0.39
19.26875,17.293148,-0.34759346,0.24
19.026365,17.18522,-0.34259298,0.29
18.831997,17.11927,-0.33860764,0.36
18.967764,17.351175,-0.34373018,0.26
18.84943,17.352196,-0.34176892,0.33
18.713081,17.337221,-0.33980224,0.25
18.7298,17.463182,-0.3418875,0.43
18.375507,17.189323,-0.33280575,0.17
18.121113,17.060406,-0.3267963,0.41
18.227873,17.267324,-0.3319111,0.19
18.421667,17.560205,-0.3390593,0.31
18.432383,17.682167,-0.34114435,0.42
18.569155,17.925072,-0.3462753,0.21
18.385792,17.86112,-0.34329048,0.43
18.140541,17.680218,-0.3362415,0.27
18.35135,17.997087,-0.3444016,0.16
18.442108,18.199013,-0.34951848,0.37
18.33578,18.209028,-0.34756234,0.34
18.28247,18.27102,-0.34762633,0.35
18.71439,18.817785,-0.36287877,0.22
18.52202,18.743843,-0.3588912,0.39
18.486864,18.766842,-0.35892043,0.37
18.131416,18.524979,-0.34986657,0.23
18.0561,18.564981,-0.34892285,0.16
18.583076,19.223698,-0.36722413,0.19
21.019997,21.86449,-0.4433151,0.13
20.99072,21.972466,-0.4444043,0.25
20.993456,22.114426,-0.4475075,0.32
21.019342,22.210394,-0.44856894,0.34
21.009073,22.34136,-0.4506688,0.29
21.000813,22.472326,-0.45276815,0.31
21.00155,22.616287,-0.45487398,0.34
20.985285,22.741257,-0.45697206,0.32
20.97102,22.870226,-0.45907253,0.25
20.969765,23.01319,-0.46117884,0.25
20.943623,23.058184,-0.4612216,0.37
21.09245,23.36807,-0.4683978,0.19
20.889086,23.290133,-0.46441364,0.11
6.6508217,7.564286,-0.012908908,0.22
6.6394825,7.6002812,-0.013946827,0.43
19.145214,21.837889,-0.41697195,0.21
6.6141367,7.6202836,-0.01397799,0.32
18.707708,21.47708,-0.40486512,0.26
18.531343,21.412134,-0.40188316,0.3
18.464045,21.471136,-0.4019537,0.37
18.39174,21.524141,-0.4020218,0.36
21.019806,24.891703,-0.49256366,0.6
21.02669,24.97968,-0.4946273,0.33
21.006435,25.116652,-0.4967382,0.17
18.67776,22.491838,-0.42164728,0.27
18.579445,22.518856,-0.4207065,0.37
18.460117,22.518887,-0.41975364,0.28
18.394823,22.584887,-0.41983008,0.42
18.310518,22.626898,-0.4198959,0.22
7.9916525,10.003404,-0.07233767,0.4
7.970324,10.041402,-0.07238105,0.32
7.950996,10.082399,-0.07242603,0.42
7.9206576,10.110402,-0.07346559,0.23
7.916342,10.170391,-0.07351922,0.37
7.716886,9.983487,-0.06846219,0.49
7.8156433,10.17442,-0.07257488,0.24
7.8705244,10.278382,-0.07563557,0.28
7.8401847,10.307386,-0.07567628,0.2
7.5496693,9.995533,-0.06656062,0.44
7.481301,9.972559,-0.06557714,0.33
7.459968,10.010558,-0.06562145,0.46
7.382598,9.97359,-0.06363099,0.21
7.4383273,10.113545,-0.06672226,0.46
7.3481,10.026589,-0.06469561,0.37
7.481893,10.272503,-0.07083638,0.36
7.4475574,10.2935095,-0.07087311,0.29
7.3001313,10.160581,-0.06683805,0.16
6.927521,9.716781,-0.053656805,0.43
6.951225,9.814755,-0.055729363,0.31
6.964926,9.898737,-0.057795197,0.37
6.989789,9.966717,-0.058840733,0.34
6.9484415,9.975729,-0.0588718,0.48
6.856054,9.91177,-0.056867868,0.16
6.835724,9.949771,-0.0569127,0.44
6.8123965,9.982773,-0.0579549,0.29
6.733017,9.935808,-0.055958994,0.2
6.7687335,10.055777,-0.058043864,0.53
6.785592,10.11476,-0.06008595,0.19
6.8073,10.215736,-0.06216202,0.36
6.191449,9.374088,-0.039778378,0.24
6.1581035,9.389098,-0.0398116,0.5
6.1137495,9.3871155,-0.038836356,0.31
6.0794044,9.4001255,-0.038868573,0.5
6.0380583,9.401141,-0.037894398,0.25
6.0048704,9.383155,-0.03789843,0.54
5.944498,9.356181,-0.036911014,0.36
5.8521037,9.277227,-0.033896882,0.18
5.828456,9.370223,-0.035994638,0.43
5.800122,9.39023,-0.036030017,0.23
5.761773,9.395246,-0.035058245,0.51
5.737586,9.391255,-0.03506969,0.23
5.6902294,9.381275,-0.03409025,0.52
5.6528816,9.387289,-0.034119,0.31
5.61253,9.388304,-0.03414524,0.5
5.5731816,9.39032,-0.033171844,0.31
5.527821,9.383338,-0.033194277,0.5
5.5046425,9.378348,-0.03220451,0.3
5.464291,9.378365,-0.032230206,0.5
5.4309487,9.389378,-0.032261398,0.3
5.3865914,9.382397,-0.03128356,0.5
5.346236,9.382413,-0.03130955,0.3
5.3098927,9.387428,-0.030337535,0.48
5.2715387,9.390443,-0.030365108,0.3
5.24336,9.374457,-0.02936904,0.46
5.2039995,9.376473,-0.029396519,0.29
5.1686563,9.382488,-0.029425062,0.48
5.132303,9.388502,-0.029454345,0.3
5.090953,9.383521,-0.0284771,0.46
5.0646186,9.405531,-0.028514335,0.36
5.0482845,9.448533,-0.029563889,0.45
5.032121,9.452539,-0.02957822,0.25
5.018795,9.50054,-0.02963029,0.45
4.978443,9.497558,-0.029654484,0.32
4.940087,9.499575,-0.02968194,0.43
4.898736,9.493594,-0.02870429,0.4
4.864393,9.500609,-0.028733717,0.4
4.8310466,9.510623,-0.028765244,0.32
4.8078666,9.502635,-0.027773732,0.43
4.763504,9.491656,-0.027793946,0.4
4.732157,9.50567,-0.027827911,0.39
4.691812,9.49869,-0.026849171,0.38
4.654453,9.501706,-0.026877485,0.4
4.6141047,9.494726,-0.02589893,0.4
4.5827594,9.50774,-0.025932271,0.39
4.561581,9.50275,-0.025942408,0.4
4.519215,9.494771,-0.025964567,0.4
4.4898834,9.508784,-0.02599758,0.4
4.447519,9.499806,-0.025019014,0.39
4.409167,9.496824,-0.025043145,0.36
4.3758187,9.504841,-0.024073757,0.36
4.337469,9.500861,-0.024097145,0.39
4.3152833,9.493873,-0.024106491,0.37
4.2819376,9.500889,-0.02413638,0.38
4.239576,9.488911,-0.023155617,0.36
4.2102365,9.503924,-0.023190003,0.37
4.1839046,9.524937,-0.023227688,0.36
4.139539,9.507961,-0.022244098,0.34
4.1031857,9.507979,-0.022270173,0.33
4.096029,9.531981,-0.023296919,0.28
4.0536637,9.519004,-0.02231571,0.27
4.023321,9.53202,-0.022349311,0.2
3.9789588,9.512044,-0.021363432,0.15
3.9345934,9.49207,-0.020377668,0.42
3.889223,9.470096,-0.020390952,0.29
3.8618891,9.488109,-0.020427132,0.49
3.8397036,9.478121,-0.019434389,0.24
3.8414104,9.568113,-0.021514028,0.55
3.8541474,9.683099,-0.024607899,0.3
3.8175073,9.769113,-0.025711747,0.46
3.7921772,9.795125,-0.025753576,0.16
3.7438047,9.7641535,-0.024761397,0.36
3.72462,9.763165,-0.024774639,0.21
3.6982894,9.786179,-0.024814634,0.23
3.6539261,9.763205,-0.024826894,0.38
3.6275892,9.788218,-0.024868762,0.2
3.5932448,9.790237,-0.024896067,0.13
3.549871,9.772264,-0.023912312,0.48
3.5327008,9.772274,-0.023925133,0.18
3.3901396,9.486374,-0.016776688,0.18
3.3096948,9.36243,-0.013726753,0.39
3.2773483,9.365447,-0.013754154,0.31
3.2439969,9.366467,-0.013780587,0.4
3.209637,9.366488,-0.012806959,0.4
3.1782901,9.372506,-0.0128364405,0.32
3.1571066,9.35952,-0.012841134,0.41
3.1227534,9.356541,-0.012864978,0.32
3.0893981,9.357562,-0.011891688,0.4
3.0610607,9.370578,-0.012925276,0.39
3.0257063,9.3636,-0.0119464975,0.38
2.9923549,9.362621,-0.011971582,0.39
2.9620097,9.370639,-0.012002399,0.39
2.9388182,9.350656,-0.011002701,0.39
2.9114792,9.367671,-0.012039263,0.38
2.8771224,9.363693,-0.0110626565,0.39
2.8467758,9.371713,-0.011093636,0.39
2.8074036,9.352737,-0.01110776,0.39
2.7790642,9.365755,-0.011141697,0.38
2.746713,9.366776,-0.010168179,0.37
2.7305355,9.367787,-0.010181884,0.38
2.6981888,9.366808,-0.010206661,0.38
2.6648326,9.36483,-0.010231406,0.38
2.634491,9.36985,-0.010260006,0.38
2.6021369,9.370871,-0.010286708,0.36
2.5637648,9.351897,-0.009300579,0.36
2.535429,9.362916,-0.00933302,0.38
2.519252,9.3629265,-0.009345999,0.36
2.4869003,9.361948,-0.009371109,0.38
2.454548,9.3609705,-0.00939627,0.37
2.4241965,9.36899,-0.009427802,0.39
2.39185,9.365013,-0.008450402,0.46
2.355482,9.350038,-0.008466625,0.16
2.324127,9.354059,-0.008495577,0.5
2.3089592,9.35407,-0.008507894,0.31
2.2756023,9.348094,-0.007529744,0.16
2.2472608,9.361113,-0.008564249,0.5
2.2149055,9.359136,-0.007588883,0.38
2.1805434,9.34916,-0.007608192,0.19
2.152202,9.36218,-0.0076427828,0.38
2.1218574,9.365202,-0.007670278,0.36
2.1046734,9.361215,-0.007680878,0.38
2.0713155,9.353238,-0.0067012915,0.43
2.0409698,9.35626,-0.0067288904,0.22
2.0096128,9.3592825,-0.0067573553,0.55
1.9943185,9.428291,-0.008830131,0.16
1.9820385,9.511299,-0.009912504,0.33
1.949687,9.507322,-0.009935647,0.5
1.934512,9.511333,-0.009951624,0.3
1.9011531,9.504358,-0.009973058,0.41
1.8457084,9.395402,-0.006924338,0.38
2.2540624,11.455045,-0.052371696,0.14
2.2498474,11.615043,-0.05651169,0.31
2.2436256,11.773044,-0.05965129,0.31
2.2555804,11.92403,-0.06277078,0.32
2.247357,12.082032,-0.065911524,0.29
2.2421548,12.256031,-0.07006333,0.34
2.234951,12.423033,-0.07321048,0.3
2.2297568,12.611032,-0.077373676,0.31
2.224572,12.80103,-0.08153829,0.31
2.2203956,13.005028,-0.085713714,0.31
2.234381,13.200013,-0.0898677,0.36
2.22419,13.380015,-0.094026946,0.25
2.221038,13.606013,-0.09921941,0.29
2.1807134,13.630043,-0.09926954,0.41
2.133353,13.617081,-0.09829385,0.34
2.0910203,13.626113,-0.098332934,0.47
2.067727,13.893125,-0.104574,0.47
2.023388,13.898159,-0.1046111,0.39
1.97905,13.899193,-0.10464489,0.34
1.9337046,13.89823,-0.10467779,0.4
1.8883597,13.894266,-0.103708215,0.34
1.8430135,13.893302,-0.10374119,0.39
1.7966605,13.887338,-0.103770785,0.35
1.7754979,13.890355,-0.10378909,0.37
1.7301501,13.892391,-0.10382465,0.36
1.6858103,13.8924265,-0.10385783,0.42
1.0576463,9.480024,-0.0066601145,0.3
1.0293121,9.495048,-0.0076969396,0.38
0.99795365,9.493074,-0.0067220125,0.31
0.9686118,9.5030985,-0.0077554896,0.47
0.9524301,9.495113,-0.0067625837,0.3
0.92107326,9.488139,-0.006783515,0.46
0.8917291,9.503165,-0.006821224,0.44
1.0559212,11.249997,-0.045145337,0.32
1.0205795,11.255027,-0.045177992,0.32
0.9852384,11.257057,-0.045208167,0.3
0.9478785,11.251089,-0.045233347,0.32
0.9297038,11.242105,-0.04524056,0.34
0.8933522,11.242135,-0.04526995,0.34
0.8570005,11.237168,-0.044295218,0.31
0.8206484,11.238199,-0.044325486,0.31
0.7842959,11.235231,-0.04435246,0.32
0.74996364,11.244262,-0.044387735,0.31
0.713611,11.243294,-0.044416398,0.32
0.6964451,11.248308,-0.04443445,0.32
0.660092,11.24534,-0.044461492,0.32
0.49312901,9.459516,-0.0061275917,0.2
0.46480256,9.491542,-0.0061785122,0.32
0.43445003,9.48757,-0.0062014516,0.46
0.39395174,9.323608,-0.0031014474,0.38
0.36359322,9.325636,-0.00312954,0.38
0.3484116,9.315649,-0.0031345475,0.21
0.31703237,9.28568,-0.0021372782,0.57
0.28667045,9.281708,-0.0021605198,0.27
0.2573198,9.276735,-0.0021820778,0.36
0.22899047,9.297761,-0.002224033,0.28
0.20066854,9.3327875,-0.0032773842,0.41
0.1713222,9.334815,-0.0033046408,0.38
0.1561407,9.33083,-0.0033146383,0.38
0.12679376,9.331858,-0.0033410934,0.38
0.096438184,9.338886,-0.003373315,0.32
0.06708674,9.331914,-0.0033932813,0.39
0.037740417,9.333942,-0.003420565,0.32
0.0073761106,9.326972,-0.002441451,0.39
-0.021966752,9.334,-0.0034727906,0.38
-0.037150998,9.328014,-0.0024812247,0.34
-0.06650043,9.326043,-0.0025052992,0.39
-0.09584434,9.331071,-0.0035350227,0.32
-0.12619905,9.337101,-0.0035664306,0.39
-0.15555382,9.32913,-0.002585694,0.38
-0.18490545,9.32516,-0.0026081882,0.38
-0.21525967,9.331188,-0.0036395928,0.33
-0.2294296,9.329204,-0.0026504013,0.39
-0.2597926,9.326233,-0.002674599,0.38
-0.2891363,9.330262,-0.0037035083,0.38
-0.31849077,9.324292,-0.0027244352,0.38
-0.34783995,9.323321,-0.0027493574,0.38
-0.3781952,9.327353,-0.002779146,0.31
-0.40753686,9.332381,-0.0038088325,0.4
-0.42271662,9.3323965,-0.0038221306,0.38
-0.45208094,9.319427,-0.0028375366,0.33
-0.4814249,9.322457,-0.0028656325,0.39
-0.51178604,9.321487,-0.0028914448,0.32
-0.5411239,9.328517,-0.003922684,0.39
-0.57048726,9.317549,-0.0029397192,0.38
-0.58566564,9.318564,-0.0029538074,0.34
-0.61500275,9.325594,-0.003985022,0.39
-0.6453589,9.327625,-0.004013177,0.37
-0.67471075,9.3246565,-0.004036515,0.37
-0.7040578,9.324687,-0.004062204,0.37
-0.7344184,9.323718,-0.0040879906,0.38
-0.7637585,9.32775,-0.004116794,0.37
-0.7799342,9.336767,-0.0041379808,0.38
-0.808286,9.326797,-0.004154955,0.32
-0.83962035,9.34683,-0.00419795,0.48
-0.8719465,9.3768635,-0.005249548,0.13
-0.90721023,9.457899,-0.007343315,0.57
-0.95236844,9.652943,-0.011534104,0.32
-0.9886482,9.72298,-0.012619745,0.16
-1.0038425,9.710996,-0.012623486,0.36
-1.0371602,9.741032,-0.013675385,0.16
-1.0665362,9.718063,-0.0126827825,0.14
-1.0978916,9.717098,-0.012708931,0.17
-1.120317,9.633124,-0.011663292,0.29
-1.1457255,9.576155,-0.010641203,0.2
-1.1899513,9.7062,-0.012779429,0.17
-1.187311,9.525201,-0.009637807,0.32
-1.2245816,9.59624,-0.01072453,0.24
-1.2509829,9.551271,-0.009712703,0.18
-1.2892604,9.621311,-0.011799325,0.42
-1.3325057,9.727356,-0.013917621,0.22
-1.3529562,9.632382,-0.0118624065,0.27
-1.3882743,9.66642,-0.012918649,0.13
-1.392533,9.578428,-0.010855106,0.44
-1.4437302,9.735479,-0.015018698,0.2
-1.4730923,9.721514,-0.0140330605,0.35
-1.5004703,9.692545,-0.01403433,0.21
-1.5258713,9.646576,-0.013021039,0.24
-1.5532458,9.620608,-0.013024679,0.19
-1.5965099,9.705655,-0.014126014,0.22
-1.6136724,9.716673,-0.015148944,0.15
-1.646027,9.71871,-0.015177949,0.35
-1.6694244,9.66774,-0.0141592715,0.16
-1.7047447,9.694779,-0.015209666,0.42
-1.7410682,9.72382,-0.015262344,0.19
-1.7694498,9.699854,-0.015268303,0.16
-1.8008004,9.698891,-0.0152941,0.47
-1.8169769,9.699909,-0.015308541,0.15
-1.8443465,9.676942,-0.0153144235,0.16
-1.8657662,9.614971,-0.013286064,0.14
-1.9010885,9.63901,-0.01433394,0.31
-1.9453725,9.708059,-0.016422959,0.18
-1.9573714,9.426088,-0.010222647,0.56
-1.9725338,9.429105,-0.01023777,0.22
-1.9999075,9.409139,-0.010246159,0.37
-2.0312595,9.410176,-0.0102735255,0.41
-2.0695791,9.445221,-0.011331977,0.16
-2.0969467,9.427255,-0.010341804,0.55
-2.1770391,9.670338,-0.016589297,0.38
-2.21535,9.7033825,-0.0176458,0.16
-2.2285438,9.6884,-0.016645717,0.36
-2.2658741,9.711444,-0.017693892,0.17
-2.294237,9.695479,-0.017705709,0.38
-2.32858,9.70452,-0.017740952,0.16
-2.3569536,9.685556,-0.017750544,0.38
-2.3952754,9.712601,-0.01880227,0.16
-2.4226525,9.689636,-0.01780806,0.39
-2.439821,9.694657,-0.01782597,0.18
-2.4701853,9.684695,-0.01784378,0.27
-2.5045164,9.695738,-0.01888026,0.21
-2.5388575,9.703779,-0.018914493,0.22
-2.5358686,9.422794,-0.012706612,0.54
-2.5592496,9.390825,-0.012702756,0.29
-2.5644734,9.347835,-0.011675815,0.21
-2.582881,9.295861,-0.010653367,0.44
-2.6162295,9.301904,-0.010685499,0.34
-2.6495774,9.307944,-0.0117175765,0.36
-2.6779327,9.297981,-0.01173388,0.43
-2.7063088,9.28302,-0.010746571,0.34
-2.741632,9.300062,-0.011788114,0.36
-2.7578194,9.298083,-0.01180006,0.38
-2.789162,9.299124,-0.011826677,0.38
-2.8205252,9.295165,-0.011849669,0.35
-2.8508768,9.2912035,-0.011871793,0.36
-2.8862107,9.304248,-0.012910205,0.36
-2.9135842,9.287284,-0.012920464,0.36
-2.9317493,9.295308,-0.012941112,0.38
-2.965102,9.29835,-0.012970585,0.35
-2.9964492,9.297392,-0.012995504,0.36
-3.024816,9.28443,-0.013009356,0.43
-3.0681336,9.319483,-0.014069709,0.18
-3.090519,9.287515,-0.014065033,0.6
-3.1079285,9.238543,-0.013044201,0.29
-3.0952017,9.147533,-0.010968957,0.32
-3.1295476,9.154578,-0.011001933,0.33
-3.1648846,9.165624,-0.012038498,0.35
-3.1922538,9.150661,-0.012050056,0.34
-3.228595,9.162709,-0.0120880315,0.35
-3.2589447,9.15875,-0.012109741,0.34
-3.2893038,9.152791,-0.012130002,0.35
-3.307468,9.159814,-0.013149608,0.35
-3.337826,9.153855,-0.013169805,0.36
-3.3731751,9.160902,-0.013203166,0.36
-3.4035323,9.154943,-0.013223273,0.36
-3.434895,9.149987,-0.013244853,0.36
-3.4682393,9.153031,-0.013273618,0.34
-3.5045748,9.16408,-0.014310351,0.35
-3.5187616,9.1571,-0.014316709,0.36
-3.5521083,9.159144,-0.014344628,0.35
-3.5864599,9.16219,-0.014373991,0.36
-3.6178088,9.159233,-0.015396696,0.37
-3.650168,9.156278,-0.015420153,0.37
-3.6835215,9.156324,-0.0154464515,0.38
-3.7158742,9.154369,-0.015470503,0.37
-3.7320502,9.153391,-0.0154825095,0.37
-3.7674072,9.156439,-0.016512344,0.36
-3.800758,9.156486,-0.016538443,0.38
-3.8321133,9.151529,-0.016559424,0.31
-3.8664567,9.154577,-0.016588287,0.39
-3.8968217,9.14562,-0.016605599,0.37
-3.9281754,9.140664,-0.017626433,0.38
-3.950336,9.153693,-0.017652689,0.38
-3.9806943,9.145737,-0.01767057,0.37
-4.012052,9.139781,-0.017690577,0.38
-4.053386,9.156837,-0.018734261,0.37
-4.079762,9.1378765,-0.018741254,0.32
-4.1151147,9.139926,-0.018769741,0.39
-4.1514482,9.1469755,-0.019802393,0.32
-4.1706223,9.151003,-0.01981981,0.35
-4.2019873,9.143048,-0.019838117,0.41
-4.240327,9.1521015,-0.01987351,0.34
-4.265709,9.13014,-0.01987743,0.4
-4.2990584,9.128188,-0.019901264,0.32
-4.3384047,9.137242,-0.020937206,0.39
-4.3717523,9.135291,-0.020960907,0.38
-4.3959036,9.151323,-0.021990163,0.33
-4.4252734,9.138367,-0.022003131,0.39
-4.4556465,9.126412,-0.022017503,0.38
-4.4949813,9.136468,-0.022053786,0.33
-4.526346,9.127515,-0.022070864,0.4
-4.558709,9.1205635,-0.02209002,0.26
-4.592057,9.117611,-0.023112623,0.45
-4.6212034,9.14165,-0.023150802,0.3
-4.6266375,9.077667,-0.02211042,0.56
-4.763737,9.286835,-0.02735612,0.0
-4.936745,9.567043,-0.034676842,0.0
-4.9651136,9.549087,-0.034684632,0.0
-5.0084467,9.561148,-0.03572408,0.0
-5.0268507,9.521181,-0.034709264,0.0
-5.056995,9.544221,-0.03574686,0.0
-5.083386,9.519264,-0.035748176,0.06
-5.1446724,9.566347,-0.03682455,0.18
-5.1870127,9.574408,-0.037860088,0.0
-5.220376,9.564458,-0.037876613,0.0
-5.211836,9.474461,-0.035807677,0.0
-5.2372193,9.449503,-0.035808083,0.0
-5.244431,9.425517,-0.0357964,0.0
-5.2857666,9.432578,-0.035830285,0.0
-5.3081546,9.4026165,-0.035825014,0.0
-5.431309,9.559772,-0.040020443,0.14
-5.508012,9.556886,-0.041071318,0.18
-7.2016597,12.552879,-0.116331495,0.15
-7.1939135,12.490878,-0.11528116,0.12
-7.196366,12.402897,-0.11321817,0.0
-5.736049,9.7142,-0.046337176,0.0
-5.6945753,9.570164,-0.04320796,0.0
-5.7433505,9.514248,-0.042201724,0.0
-5.7826996,9.513308,-0.043227565,0.0
-5.799887,9.507335,-0.043234922,0.0
-5.965958,9.723546,-0.04849776,0.11
-5.9913535,9.69459,-0.048494194,0.11
-5.9498825,9.554553,-0.045368176,0.16
-6.0061903,9.5816345,-0.04642449,0.5
-6.1517687,9.683836,-0.050592143,0.18
-6.2936893,9.883012,-0.055825323,0.19
-6.2811565,9.792011,-0.053752758,0.24
-6.2855844,9.730031,-0.052711777,0.23
-6.339909,9.74911,-0.05376034,0.25
-6.2874575,9.596062,-0.050618332,0.17
-6.290888,9.53408,-0.049576808,0.52
-6.4078717,9.685228,-0.053758748,0.19
-6.4502225,9.684295,-0.053785138,0.28
-6.456637,9.628317,-0.052749585,0.0
-6.419018,9.372314,-0.04754476,0.48
-6.420453,9.309331,-0.046501268,0.33
-6.4086943,9.259323,-0.045458574,0.42
-6.404141,9.188332,-0.04440572,0.4
-6.4295173,9.164376,-0.04440495,0.25
-6.452905,9.13642,-0.04340006,0.57
-6.4802923,9.113469,-0.04340117,0.25
-6.50866,9.094518,-0.043405656,0.52
-6.555015,9.098589,-0.044437543,0.32
-6.5781784,9.102626,-0.044454843,0.41
-6.6235294,9.105696,-0.04548523,0.33
-6.6638875,9.101761,-0.04550746,0.43
-6.705238,9.099826,-0.04653162,0.34
-6.7465944,9.096892,-0.04655498,0.44
-6.791939,9.099963,-0.047584925,0.34
-6.8343005,9.097032,-0.047608692,0.44
-6.8644567,9.1090765,-0.04863557,0.33
-6.9038134,9.103142,-0.048655212,0.43
-6.946171,9.100208,-0.049678702,0.36
-6.9975123,9.109289,-0.049716026,0.37
-7.036872,9.102353,-0.050734647,0.45
-7.0832276,9.103428,-0.050763052,0.35
-7.1205907,9.093489,-0.05177815,0.44
-7.153741,9.108539,-0.051808514,0.35
-7.1951036,9.102606,-0.05282867,0.37
-7.2434545,9.105684,-0.052859273,0.38
-7.2868085,9.102754,-0.053882524,0.37
-7.334155,9.104829,-0.054911587,0.38
-7.367524,9.088887,-0.054919496,0.37
-7.423863,9.100975,-0.055960715,0.37
-7.448038,9.102014,-0.05597537,0.38
-7.4903917,9.097085,-0.055996113,0.38
-7.536745,9.096159,-0.05702192,0.38
-7.5811043,9.092232,-0.058044303,0.38
-7.6234612,9.086302,-0.058063995,0.37
-7.67281,9.088381,-0.059093315,0.38
-7.7191644,9.086458,-0.059117924,0.38
-7.751326,9.096507,-0.06014319,0.4
-7.8016768,9.098588,-0.061172746,0.45
-7.8450418,9.091661,-0.06119175,0.29
-7.8824058,9.078727,-0.061202955,0.46
-7.9437346,9.0938225,-0.06224766,0.3
-7.9850955,9.084892,-0.06326375,0.47
-8.032454,9.081971,-0.06328739,0.31
-8.068612,9.095027,-0.06431656,0.48
-8.115967,9.092105,-0.06534,0.3
-8.158337,9.082177,-0.065355495,0.46
-8.210686,9.084263,-0.066385046,0.32
-8.259035,9.082342,-0.06740938,0.5
-8.306391,9.078423,-0.06743159,0.32
-8.358742,9.079509,-0.06846001,0.5
-8.387911,9.083556,-0.06847833,0.32
-8.441265,9.084643,-0.06950706,0.5
-8.489614,9.081724,-0.07053008,0.32
-8.535977,9.074804,-0.070548974,0.48
-8.582339,9.067883,-0.07156773,0.26
-8.68961,9.127043,-0.07366688,0.64
-9.141367,9.557656,-0.08721897,0.23
-9.145579,9.531671,-0.08720142,0.29
-9.172974,9.500727,-0.08719163,0.37
-9.218341,9.488807,-0.087205075,0.42
-9.269694,9.483893,-0.088226676,0.31
-9.328046,9.48499,-0.08925615,0.32
-9.349444,9.448037,-0.08923845,0.37
-9.465716,9.508213,-0.09134088,0.27
-9.528836,9.544306,-0.093398996,0.24
-9.556231,9.5123625,-0.09338768,0.31
-9.617581,9.514465,-0.09341866,0.27
-9.707885,9.546605,-0.09548636,0.33
-9.759251,9.537694,-0.09650378,0.31
-9.786641,9.505751,-0.096492,0.38
-9.947862,9.604988,-0.100644246,0.0
-9.758342,9.386744,-0.094386734,0.0
-9.789729,9.358806,-0.09437977,0.0
-9.862062,9.370924,-0.095422745,0.06
-10.149097,9.592332,-0.102727145,0.0
-10.35869,9.672657,-0.10788513,0.14
-10.324954,9.609623,-0.1058204,0.47
-10.378313,9.600717,-0.10683733,0.21
-10.46663,9.6238575,-0.10889497,0.25
-10.454086,9.550862,-0.106831744,0.23
-10.348663,9.39174,-0.10365942,0.18
-10.424652,9.313897,-0.10363137,0.46
-10.436075,9.264934,-0.102597564,0.41
-10.4275255,9.197944,-0.10154073,0.41
-10.421958,9.135957,-0.10048912,0.4
-10.442368,9.096006,-0.10046619,0.36
-10.472766,9.065069,-0.10045465,0.49
-10.507155,9.038139,-0.1004479,0.41
-10.554312,9.051214,-0.10147842,0.43
-10.613674,9.045319,-0.10249887,0.33
-10.674034,9.040423,-0.10352038,0.43
-10.743377,9.043541,-0.10455192,0.34
-10.797745,9.032639,-0.10456577,0.45
-10.867092,9.034756,-0.10659616,0.35
-10.932446,9.032869,-0.10762149,0.46
-10.977611,9.0419445,-0.10764732,0.35
-11.046957,9.043062,-0.10967645,0.45
-11.122301,9.04819,-0.11071108,0.35
-11.17068,9.030281,-0.110715896,0.45
-11.241033,9.030401,-0.112744085,0.35
-11.313385,9.031526,-0.1137737,0.45
-11.372745,9.022632,-0.114789784,0.35
-11.423898,9.035714,-0.115820624,0.45
-11.499249,9.037845,-0.11685177,0.35
-11.565608,9.032961,-0.11787344,0.45
-11.635962,9.031083,-0.11889896,0.34
-11.701324,9.0241995,-0.11991823,0.45
-11.770682,9.020321,-0.12094135,0.36
-11.843037,9.018448,-0.12196707,0.46
-11.894201,9.028532,-0.12299472,0.35
-11.966551,9.026659,-0.12402016,0.45
-12.037909,9.022784,-0.12504335,0.34
-12.108267,9.017907,-0.12706515,0.45
-12.181628,9.014037,-0.12808871,0.37
-12.250984,9.008161,-0.1291089,0.39
-12.364296,9.034347,-0.13117205,0.58
-12.27961,8.941238,-0.12806235,0.22
-12.284048,8.885269,-0.12801626,0.14
-12.529211,9.008646,-0.1332088,0.4
-12.602572,9.002774,-0.13522957,0.41
-12.682925,9.001916,-0.13625689,0.35
-12.757286,8.996048,-0.13727762,0.43
-12.818441,9.010149,-0.13831091,0.35
-12.890804,9.002279,-0.1393289,0.44
-18.891872,13.216967,-0.29903272,0.44
-18.90533,13.139022,-0.2989647,0.28
-18.899813,13.047051,-0.2968779,0.48
-18.904282,12.963096,-0.29580137,0.37
-18.902758,12.87513,-0.29471916,0.47
-18.892008,12.824132,-0.29466856,0.3
-18.886486,12.734161,-0.29258314,0.48
-18.894949,12.654209,-0.29251102,0.3
-18.885433,12.562234,-0.29042226,0.48
-18.900892,12.487292,-0.29035655,0.3
-18.888376,12.394311,-0.28826576,0.48
-18.910822,12.32538,-0.28820738,0.3
-18.877094,12.260349,-0.2871366,0.51
-18.88056,12.179391,-0.28606135,0.29
-18.877037,12.093423,-0.2849792,0.49
-18.893496,12.020484,-0.28391483,0.3
-18.877983,11.927498,-0.28282243,0.5
-18.88345,11.848543,-0.28174904,0.3
-18.88792,11.768587,-0.28067425,0.52
-18.876163,11.720588,-0.27962533,0.31
-18.871637,11.636618,-0.27854407,0.52
-18.880098,11.560666,-0.2784738,0.3
-18.870579,11.473688,-0.277388,0.51
-18.883038,11.4007435,-0.2763214,0.3
-18.876516,11.315771,-0.27523807,0.52
-18.889973,11.243828,-0.2741724,0.3
-18.865232,11.18881,-0.2731129,0.51
-18.87369,11.114858,-0.27304375,0.32
-18.869165,11.032887,-0.27196333,0.58
-11.033813,6.318221,-0.07338081,0.25
-11.042235,6.2772555,-0.07334751,0.36
-11.063634,6.2453094,-0.07332604,0.51
-18.848297,10.667023,-0.2666025,0.51
-18.858753,10.596073,-0.2665358,0.34
-18.856224,10.517107,-0.26545787,0.55
-18.864685,10.445156,-0.2643894,0.32
-18.858162,10.364182,-0.26330823,0.53
-18.866623,10.292232,-0.26323944,0.33
-18.859095,10.212256,-0.26215872,0.54
-18.852335,10.170265,-0.2611156,0.32
-18.845812,10.090293,-0.26003492,0.53
-18.854265,10.02034,-0.2599676,0.32
-18.852732,9.944374,-0.25889176,0.55
-18.865194,9.87543,-0.25882605,0.32
-18.857668,9.796454,-0.25774553,0.53
-18.849905,9.755462,-0.25670278,0.34
-18.83539,9.672476,-0.25561643,0.54
-18.852837,9.608539,-0.25555632,0.32
-18.846312,9.530565,-0.25447652,0.54
-18.844782,9.4556,-0.25340074,0.33
-18.849243,9.384642,-0.2533302,0.44
-18.845713,9.309673,-0.25225362,0.43
-18.825958,9.263661,-0.25120267,0.42
-18.842415,9.198723,-0.2511405,0.41
-18.837887,9.123753,-0.25006336,0.41
-18.841345,9.053794,-0.2489929,0.38
-18.925743,9.022959,-0.25097966,0.46
-19.0751,9.022228,-0.25301084,0.24
-19.201473,9.009459,-0.25602448,0.6
-19.224688,8.984513,-0.25600368,0.33
-19.376041,8.982785,-0.2590335,0.16
-19.616331,9.022195,-0.26412392,0.41
-19.780672,9.025487,-0.26716092,0.34
-19.924042,9.016749,-0.2691808,0.41
-20.083395,9.015036,-0.27221093,0.36
-20.235754,9.009311,-0.27523515,0.44
-20.344915,9.020501,-0.27726838,0.46
-20.916973,9.201431,-0.29057047,0.33
-21.080336,9.195727,-0.2935958,0.34
-21.236698,9.187013,-0.29661626,0.34
-21.385073,9.173285,-0.29962957,0.29
-21.577417,9.1776285,-0.30267003,0.34
-21.736786,9.166919,-0.3056879,0.32
-21.878925,9.188164,-0.30873677,0.29
-22.077274,9.191517,-0.31277633,0.32
-22.235643,9.177808,-0.31578994,0.35
-22.408009,9.169122,-0.31881112,0.3
-22.579376,9.158435,-0.32282963,0.3
-22.741755,9.142734,-0.32584074,0.31
-22.915884,9.172032,-0.3289028,0.25
-23.084259,9.157343,-0.3319155,0.35
-23.127712,9.092454,-0.33285153,0.37
-23.134197,9.011509,-0.33176342,0.38
-23.28559,8.987794,-0.33476242,0.31
-23.475954,8.979139,-0.3387842,0.35
-23.680315,8.973511,-0.3418112,0.35
-23.864439,9.002827,-0.3458736,0.39
-24.04782,8.987163,-0.34988543,0.37
-24.260181,8.981548,-0.35391274,0.34
-24.413574,8.953839,-0.3569056,0.42
-24.44205,8.877931,-0.3568245,0.44
-25.07317,9.021989,-0.37008408,0.15
-25.308525,9.019414,-0.3751167,0.42
-25.51665,9.049772,-0.37918243,0.24
-25.778994,9.054241,-0.38422644,0.25
-25.992369,9.039634,-0.388241,0.27
-26.139784,9.000919,-0.39121792,0.27
-26.173267,8.921023,-0.39113075,0.3
-26.339674,8.887342,-0.3941155,0.16
-26.60503,8.88582,-0.39915106,0.57
-26.83915,8.919224,-0.40422246,0.33
-29.662086,9.769842,-0.46760172,0.12
-31.548574,10.289955,-0.50946516,0.18
-31.556099,10.184025,-0.5093406,0.27
-30.797562,9.724913,-0.48969737,0.18
-31.432755,9.8200035,-0.50389147,0.17
-31.286098,9.719794,-0.49975324,0.3
-31.278631,9.610841,-0.49862194,0.2
-31.27216,9.502888,-0.4984917,0.18
-31.254225,9.284977,-0.4962273,0.33
-31.24876,9.177027,-0.4950963,0.36
-31.258284,9.0741005,-0.49497288,0.34
-31.21357,9.008058,-0.49288756,0.35
-31.15912,8.888025,-0.4917354,0.42
-31.549467,8.893727,-0.49878782,0.2
-31.846851,8.872275,-0.5047959,0.34
-32.190224,8.8609,-0.511821,0.31
-32.3107,8.78716,-0.513744,0.25
-32.909966,8.841208,-0.52687716,0.19
-34.161655,9.125309,-0.55336565,0.33
-34.215176,9.025461,-0.55424756,0.27
-34.222717,8.913536,-0.55410916,0.55
-34.347202,8.832807,-0.55602175,0.34
-34.760574,8.824558,-0.56405485,0.28
-35.179935,8.816319,-0.57208794,0.25
-35.642292,8.815153,-0.5821338,0.13
-36.659134,9.009878,-0.60448235,0.38
-36.701675,8.899018,-0.60434633,0.41
-26.274553,6.2536974,-0.37395996,0.27
-26.263062,6.1647267,-0.37384865,0.32
-26.286558,6.0838156,-0.37375078,0.32
-26.335045,6.008947,-0.37366274,0.23
-26.363535,5.9300427,-0.3745673,0.45
-26.394775,5.8941207,-0.37452564,0.33
-40.55583,8.97793,-0.68381506,0.15
-40.78332,8.895388,-0.6877289,0.34
-40.809887,8.768508,-0.6875665,0.41
-41.22432,8.724281,-0.6955459,0.34
-41.792698,8.709315,-0.70757645,0.16
-43.219475,8.93976,-0.7380024,0.18
-43.185078,8.792782,-0.73680645,0.54
-43.418594,8.699257,-0.7407033,0.23
-44.051968,8.685409,-0.75373834,0.12
-44.37146,8.60503,-0.76065856,0.19
-37.238445,7.087021,-0.605057,0.24
-47.071777,8.829778,-0.8171781,0.15
-47.12107,8.762905,-0.81809264,0.33
-47.211655,8.628146,-0.81891954,0.15
-47.97503,8.614532,-0.83496135,0.11
-49.612144,8.75141,-0.86927295,0.26
-49.666756,8.601594,-0.8700748,0.33
-50.268208,8.544713,-0.8820434,0.17
-51.799393,8.641422,-0.9142897,0.32
-51.828705,8.56352,-0.9141858,0.25
-53.76779,8.714934,-0.95553535,0.19
-53.80544,8.5480995,-0.95530957,0.16
-56.291077,8.586564,-1.0075402,0.42
-56.405712,8.424866,-1.0083249,0.0
-57.203175,8.362341,-1.0252938,0.06
-57.86134,8.367527,-1.0383465,0.09
-59.84352,8.466049,-1.0806191,0.0
-61.628773,8.52424,-1.1178211,0.07
-62.09536,8.391159,-1.1266658,0.18
-44.523193,5.8548946,-0.7499437,0.2
-44.69676,5.7362776,-0.75279105,0.0
-66.21154,8.321631,-1.2128372,0.0
-67.90553,8.428629,-1.2480974,0.0
-68.99003,8.345634,-1.2710485,0.0
-70.82339,8.343946,-1.3091617,0.0
-72.49179,8.312977,-1.3442215,0.0
-74.161224,8.271016,-1.3782644,0.0
-75.982635,8.235325,-1.4163245,0.0
-78.098015,8.219154,-1.4604293,0.0
-57.895172,5.985969,-1.0299923,0.0
-57.92451,5.8970747,-1.029867,0.0
-66.35304,-6.121462,-1.1961658,0.0
-66.19207,-6.317056,-1.1934828,0.0
-66.21407,-6.5299706,-1.1948167,0.0
-66.403046,-6.654239,-1.199002,0.0
-51.736034,-6.026111,-0.8907962,0.08
-51.558155,-6.170704,-0.8880322,0.09
-51.501213,-6.246556,-0.8871539,0.0
-51.576286,-6.420589,-0.8894218,0.0
-76.21093,-9.697178,-1.4142218,0.0
-74.02338,-9.658248,-1.369272,0.0
-73.66042,-9.847482,-1.3625803,0.0
-70.17722,-9.610329,-1.2883911,0.06
-43.481697,-6.1241336,-0.72039115,0.17
-43.46277,-6.1910596,-0.72049624,0.0
-43.490894,-6.3360248,-0.72171974,0.0
-63.639866,-9.439618,-1.1524558,0.0
-62.95107,-9.541315,-1.1386448,0.0
-61.00462,-9.445852,-1.0985955,0.0
-60.285854,-9.530505,-1.0837594,0.0
-59.695065,-9.631379,-1.0719414,0.0
-57.90959,-9.439265,-1.0337373,0.0
-56.092167,-9.328047,-0.99565774,0.0
-55.475414,-9.405886,-0.9838055,0.0
-54.0919,-9.34942,-0.9547873,0.0
-52.06568,-9.341763,-0.91287357,0.11
-51.28501,-9.370336,-0.89695394,0.09
-29.863827,-5.54385,-0.43623173,0.12
-29.876032,-5.643812,-0.43738523,0.28
-29.32942,-5.638827,-0.42540783,0.22
-29.614538,-5.790252,-0.4326249,0.31
-46.72798,-9.2341795,-0.80296665,0.2
-46.20928,-9.284213,-0.7920658,0.22
-29.61317,-6.083077,-0.43407315,0.3
-45.44073,-9.3557825,-0.77720827,0.24
-43.98338,-9.204237,-0.7460507,0.27
-43.14881,-9.173745,-0.7290442,0.31
-42.4732,-9.172525,-0.71507365,0.19
-41.854576,-9.178405,-0.7021109,0.25
-41.563835,-9.253835,-0.6972358,0.35
-40.89916,-9.175679,-0.68315065,0.16
-40.061634,-9.122197,-0.6651099,0.35
-39.460026,-9.118112,-0.65313125,0.22
-38.889416,-9.118081,-0.641157,0.19
-38.395775,-9.13218,-0.63119996,0.29
-38.0061,-9.167455,-0.6242692,0.18
-37.557453,-9.185634,-0.6153158,0.23
-36.77786,-9.0592985,-0.5981653,0.16
-36.302235,-9.065435,-0.5881954,0.23
-35.845608,-9.073605,-0.5792275,0.25
-35.452953,-9.094884,-0.5712758,0.21
-35.165264,-9.140337,-0.5663546,0.24
-34.735638,-9.147556,-0.55738366,0.14
-20.843021,-5.60748,-0.25183818,0.55
-33.76335,-9.066846,-0.5373082,0.13
-20.494566,-5.619841,-0.24487688,0.14
-20.529814,-5.699858,-0.24599518,0.55
-20.75097,-5.83118,-0.25217956,0.23
-32.064915,-9.052785,-0.50236,0.18
-31.856215,-9.10338,-0.4984417,0.33
-31.610537,-9.142912,-0.49450883,0.15
-20.778868,-6.0890794,-0.25456262,0.39
-30.843214,-9.082561,-0.4784536,0.32
-30.481602,-9.082906,-0.47146887,0.29
-30.151976,-9.090307,-0.46449286,0.33
-29.817354,-9.093701,-0.4575112,0.32
-29.478739,-9.0940895,-0.4505253,0.26
-28.944227,-9.032159,-0.43945816,0.2
-28.764431,-9.026836,-0.4364577,0.5
-28.544764,-9.058421,-0.4325114,0.26
-28.265131,-9.068912,-0.42653725,0.27
-28.208382,-9.149763,-0.4256543,0.38
-28.2126,-9.249715,-0.42679572,0.43
-28.14386,-9.326548,-0.42590696,0.36
-28.111212,-9.464412,-0.42610258,0.18
-28.233366,-9.604552,-0.43029523,0.12
-28.226591,-9.701488,-0.43043146,0.25
-28.076899,-9.750189,-0.4285048,0.0
-28.197275,-9.992272,-0.43283853,0.19
-28.219374,-10.05028,-0.43391854,0.28
-28.227589,-10.153238,-0.43406126,0.25
-28.214819,-10.250161,-0.43519592,0.13
-28.211042,-10.349101,-0.43533283,0.0
-28.188278,-10.442008,-0.4364617,0.0
-28.187502,-10.543952,-0.43660203,0.0
-14.636006,-5.600233,-0.12819517,0.0
-14.607169,-5.616173,-0.12722023,0.0
-13.681634,-5.4206057,-0.10799247,0.0
-13.664942,-5.4645505,-0.10805779,0.0
-13.655247,-5.511506,-0.10812691,0.0
-13.660542,-5.564486,-0.10820369,0.0
-13.65369,-5.5864596,-0.10923605,0.0
-13.656984,-5.638437,-0.109311245,0.0
-13.647286,-5.685393,-0.109379806,0.0
-13.638593,-5.7333503,-0.1094496,0.0
-13.65288,-5.7903433,-0.11053085,0.0
-13.645181,-5.838303,-0.110600255,0.0
-13.62949,-5.8832493,-0.11066566,0.0
-20.815723,-8.936543,-0.27861446,0.09
-20.567154,-8.90911,-0.27358457,0.13
-20.396534,-8.9138,-0.27059606,0.27
-20.21992,-8.914483,-0.26660222,0.36
-20.0473,-8.915171,-0.2636082,0.36
-19.86969,-8.912852,-0.26061013,0.32
-19.738049,-8.930607,-0.25763792,0.53
-19.634256,-8.922424,-0.25562978,0.23
-12.0540085,-5.590559,-0.07834373,0.27
-11.995356,-5.610442,-0.07737596,0.16
-11.968683,-5.6453757,-0.07642754,0.49
-11.931015,-5.67429,-0.07647114,0.33
-11.9103365,-5.7112327,-0.07652499,0.32
-11.892652,-5.74918,-0.07657994,0.39
-11.890809,-5.772164,-0.07661262,0.38
-11.887117,-5.817133,-0.07667645,0.4
-11.927391,-5.8831687,-0.07876715,0.4
-11.935688,-5.9341564,-0.078838386,0.2
-17.898375,-8.877327,-0.22261497,0.26
-17.767752,-8.885088,-0.21962847,0.38
-17.65198,-8.862892,-0.21760175,0.4
-17.517357,-8.86565,-0.21460861,0.39
-17.376743,-8.8653965,-0.21261157,0.39
-17.233137,-8.86314,-0.20961191,0.4
-17.105515,-8.866909,-0.20761979,0.34
-16.9709,-8.866669,-0.20462248,0.41
-16.849276,-8.872447,-0.20263276,0.39
-16.729511,-8.844247,-0.1995982,0.39
-16.596903,-8.844009,-0.19760072,0.39
-16.484274,-8.851804,-0.19561335,0.35
-16.35966,-8.853579,-0.19361825,0.42
-16.23504,-8.853356,-0.19062047,0.39
-16.114422,-8.855139,-0.1886252,0.39
-15.995808,-8.857925,-0.18663114,0.36
-15.891037,-8.83375,-0.1846016,0.41
-15.77542,-8.836541,-0.18260744,0.36
-15.651807,-8.833323,-0.17960554,0.43
-15.547183,-8.84113,-0.1786176,0.34
-15.43057,-8.840922,-0.1756194,0.42
-15.314956,-8.840716,-0.17362113,0.34
-15.209331,-8.844526,-0.17162785,0.43
-15.106566,-8.818356,-0.16959572,0.35
-15.005943,-8.825172,-0.16760619,0.41
-14.897327,-8.825976,-0.16660897,0.36
-14.792708,-8.828789,-0.16461422,0.42
-14.689091,-8.831603,-0.1626194,0.35
-14.580477,-8.830409,-0.16061948,0.42
-14.473865,-8.830219,-0.15862076,0.35
-14.387086,-8.809075,-0.15659489,0.38
-14.285471,-8.810893,-0.15459862,0.43
-14.187855,-8.814717,-0.15360482,0.35
-14.092235,-8.818545,-0.15161096,0.42
-13.990617,-8.817365,-0.14961071,0.33
-13.892002,-8.81819,-0.14761296,0.41
-13.803376,-8.824028,-0.1466214,0.35
-13.712613,-8.798879,-0.14459053,0.37
-13.615996,-8.798707,-0.1425914,0.38
-13.53337,-8.807555,-0.14160348,0.37
-13.438751,-8.807388,-0.13960424,0.45
-13.347139,-8.810224,-0.13860872,0.36
-13.251524,-8.808055,-0.13660689,0.37
-13.178742,-8.790935,-0.13458599,0.38
-13.096123,-8.797784,-0.13359535,0.38
-13.002508,-8.79562,-0.1315934,0.38
-12.914892,-8.797462,-0.13059643,0.38
-12.814291,-8.790288,-0.1285882,0.39
-12.742658,-8.801155,-0.1276023,0.38
-12.652044,-8.798997,-0.1256002,0.38
-12.579266,-8.778877,-0.12457558,0.37
-12.49765,-8.782731,-0.12258088,0.38
-12.419028,-8.787589,-0.12158737,0.44
-12.325422,-8.781426,-0.1195802,0.29
-12.247799,-8.785288,-0.11858536,0.48
-12.16319,-8.785138,-0.117585555,0.3
-12.086568,-8.789001,-0.115590625,0.48
-12.012795,-8.765882,-0.114562325,0.3
-11.948164,-8.777762,-0.11357721,0.47
-11.862556,-8.774612,-0.11157357,0.35
-11.779944,-8.772468,-0.11057113,0.43
-11.719307,-8.785355,-0.10958709,0.35
-11.628708,-8.7772,-0.107577205,0.46
-11.558083,-8.782072,-0.106583245,0.36
-11.499302,-8.767975,-0.105566025,0.43
-11.414694,-8.761828,-0.10455855,0.35
-11.341077,-8.7637,-0.10256085,0.45
-11.282439,-8.775592,-0.101575315,0.34
-11.205827,-8.774457,-0.10057385,0.46
-11.138208,-8.780335,-0.0995809,0.36
-11.066593,-8.782209,-0.09858302,0.45
-11.00481,-8.76211,-0.097558506,0.36
-10.9381895,-8.76699,-0.09656425,0.45
-10.871567,-8.770872,-0.09556875,0.34
-10.783973,-8.758724,-0.09355377,0.45
-10.72135,-8.765612,-0.09256183,0.35
-10.656724,-8.769497,-0.09156623,0.45
-10.585118,-8.769371,-0.09056572,0.36
-10.528336,-8.75128,-0.089543685,0.44
-10.469711,-8.760174,-0.08855405,0.35
-10.389104,-8.749039,-0.08654022,0.43
-10.327487,-8.754929,-0.08554688,0.35
-10.267865,-8.761821,-0.085554704,0.43
-10.194256,-8.755696,-0.083546855,0.33
-10.139474,-8.737608,-0.08252488,0.43
-10.0848465,-8.747509,-0.08153625,0.41
-10.021231,-8.749397,-0.08053796,0.34
-9.9526205,-8.746279,-0.079533644,0.43
-9.894996,-8.752177,-0.078540094,0.38
-9.828384,-8.750062,-0.07753693,0.44
-9.7667675,-8.751955,-0.07653853,0.42
-9.722979,-8.741882,-0.07552617,0.33
-9.658362,-8.739772,-0.07452297,0.44
-9.604737,-8.747675,-0.07453167,0.32
-9.541125,-8.746565,-0.07352961,0.43
-9.469522,-8.737446,-0.071518004,0.42
-9.410909,-8.740343,-0.07152065,0.41
-9.357282,-8.746247,-0.07052685,0.33
-9.306503,-8.728168,-0.069505006,0.43
-9.246886,-8.728065,-0.068504065,0.33
-9.193266,-8.73397,-0.06751018,0.43
-9.135646,-8.734871,-0.06651038,0.33
-9.072039,-8.7307625,-0.06550462,0.42
-9.022416,-8.739674,-0.065514185,0.34
-8.961802,-8.73657,-0.064509585,0.5
-8.9299965,-8.733517,-0.063505515,0.25
-8.869386,-8.730413,-0.06250089,0.54
-8.817768,-8.736324,-0.06150681,0.24
-8.757156,-8.732222,-0.06050098,0.52
-8.7105255,-8.7411375,-0.060510386,0.22
-8.646929,-8.735031,-0.059502143,0.51
-8.591313,-8.734936,-0.058500946,0.25
-8.55352,-8.724876,-0.057488646,0.52
-8.496904,-8.722779,-0.056485105,0.25
-8.447282,-8.727693,-0.05648971,0.52
-8.393667,-8.728601,-0.055489615,0.32
-8.34005,-8.72851,-0.05448835,0.45
-8.288437,-8.731421,-0.053490523,0.41
-8.233819,-8.729329,-0.052486904,0.41
-8.196031,-8.718268,-0.05247346,0.41
-8.144412,-8.719181,-0.0514733,0.41
-8.087805,-8.715086,-0.050467316,0.4
-8.040186,-8.720002,-0.050471738,0.39
-7.988569,-8.719915,-0.049470365,0.38
-7.944945,-8.728839,-0.048479345,0.38
-7.9041605,-8.712776,-0.04746018,0.39
-7.8485518,-8.707683,-0.04745301,0.38
-7.804928,-8.715607,-0.046460785,0.38
-7.760302,-8.72153,-0.045466244,0.4
-7.7046947,-8.715438,-0.045457885,0.38
-7.6570797,-8.718357,-0.04445983,0.41
-7.600479,-8.711265,-0.043450296,0.45
-7.5796585,-8.714228,-0.043453015,0.3
-7.529049,-8.713143,-0.042450335,0.47
-7.4774384,-8.710058,-0.04144538,0.29
-7.4238296,-8.703971,-0.040437,0.49
-7.383205,-8.712899,-0.040445697,0.29
-7.3375874,-8.715822,-0.03944753,0.46
-7.290974,-8.717743,-0.03944819,0.36
-7.2601776,-8.709695,-0.038438298,0.38
-7.2115617,-8.707613,-0.038434435,0.45
-7.1639447,-8.706534,-0.0374317,0.36
-7.1213236,-8.711462,-0.036435727,0.39
-7.065726,-8.701373,-0.03542275,0.45
-7.0231085,-8.7063,-0.035426725,0.36
-6.994309,-8.699255,-0.034417998,0.41
-6.951689,-8.703183,-0.034420833,0.35
-6.9040785,-8.701104,-0.033416882,0.43
-6.866448,-8.710039,-0.03342532,0.32
-6.8138447,-8.700954,-0.032413486,0.44
-6.765238,-8.696877,-0.031407263,0.35
-6.729606,-8.707813,-0.03141786,0.43
-6.691831,-8.689757,-0.030396795,0.35
-6.649206,-8.690686,-0.030396208,0.43
-6.6155777,-8.704627,-0.030410063,0.34
-6.5639734,-8.694545,-0.029397132,0.42
-6.520358,-8.694473,-0.02839535,0.35
-6.482735,-8.70241,-0.028402438,0.44
-6.4381204,-8.700336,-0.027398406,0.34
-6.41132,-8.693295,-0.027389724,0.43
-6.372705,-8.70023,-0.026395619,0.32
-6.322099,-8.689151,-0.02538161,0.42
-6.2824855,-8.694084,-0.02538526,0.32
-6.2458572,-8.701022,-0.025391152,0.41
-6.197256,-8.6929455,-0.02438042,0.33
-6.1586328,-8.696881,-0.02438296,0.4
-6.13483,-8.692844,-0.023377607,0.31
-6.092218,-8.691775,-0.023374597,0.4
-6.0466084,-8.685702,-0.022366105,0.39
-6.0139785,-8.697646,-0.022377353,0.32
-5.963382,-8.684568,-0.021361161,0.41
-5.9237657,-8.686504,-0.020361409,0.4
-5.892135,-8.69945,-0.020373661,0.38
-5.859349,-8.681401,-0.020353025,0.37
-5.8167443,-8.679334,-0.01934885,0.37
-5.7841105,-8.689279,-0.019357812,0.39
-5.7395015,-8.682209,-0.018348223,0.4
-5.6988883,-8.681144,-0.018345146,0.38
-5.66826,-8.695091,-0.017358316,0.4
-5.624652,-8.689023,-0.017349789,0.38
-5.597855,-8.677983,-0.01633688,0.37
-5.5592446,-8.67992,-0.01633699,0.38
-5.5226216,-8.682861,-0.016338225,0.38
-5.480016,-8.677794,-0.015330768,0.37
-5.449378,-8.688744,-0.015340621,0.37
-5.4017844,-8.675672,-0.014324537,0.37
-5.3741503,-8.692623,-0.014340729,0.37
-5.349352,-8.683586,-0.0143300295,0.36
-5.3047543,-8.674519,-0.013318257,0.36
-5.2701306,-8.6794615,-0.013321539,0.38
-5.2345133,-8.683406,-0.012323705,0.36
-5.1949015,-8.680343,-0.012318386,0.38
-5.1602817,-8.685288,-0.011321592,0.41
-5.136485,-8.677252,-0.011311993,0.34
-5.0938783,-8.668187,-0.010300302,0.36
-5.057267,-8.670129,-0.010300265,0.36
-5.0226426,-8.673074,-0.010301348,0.42
-4.9810357,-8.665011,-0.009290724,0.34
-4.951407,-8.676962,-0.009301279,0.35
-4.9127975,-8.673903,-0.008295925,0.39
-4.884011,-8.655862,-0.008275826,0.34
-4.8513865,-8.66181,-0.008280016,0.41
-4.8207564,-8.670761,-0.00728735,0.32
-4.7801595,-8.664699,-0.0072787837,0.4
-4.74454,-8.664643,-0.0072766137,0.34
-4.715907,-8.676598,-0.006287031,0.41
-4.6753097,-8.669536,-0.0062774164,0.33
-4.6485205,-8.653499,-0.0052595544,0.4
-4.618891,-8.663451,-0.005267824,0.38
-4.582279,-8.661394,-0.0052635027,0.33
-4.545665,-8.6583395,-0.0042581623,0.4
-4.514045,-8.665289,-0.004263197,0.37
-4.4794297,-8.666236,-0.004261977,0.38
-4.4468083,-8.670185,-0.004263879,0.32
-4.421017,-8.65415,-0.003246152,0.39
-4.3864064,-8.655096,-0.003244903,0.32
-4.351792,-8.655044,-0.0022426364,0.39
-4.3211713,-8.662996,-0.002248609,0.32
-4.2815638,-8.6519375,-0.0022349996,0.39
-4.2479515,-8.653887,-0.0012347504,0.35
-4.231141,-8.653862,-0.0012336227,0.36
-4.193534,-8.646806,-0.00122413,0.36
-4.1609178,-8.649756,-0.00022490328,0.38
-4.1302896,-8.654709,-0.00022777324,0.37
-4.0946865,-8.652656,-0.00022334712,0.34
-4.061067,-8.651607,0.00077996263,0.38
-4.0284553,-8.654556,0.0007792679,0.37
-4.003665,-8.637522,0.0007977665,0.36
-3.9770308,-8.65048,0.0007868125,0.36
-3.9464161,-8.657434,0.0017820855,0.35
-3.908805,-8.646379,0.0017955643,0.35
-3.8771822,-8.648333,0.0017958534,0.38
-3.8505588,-8.66329,0.0017830703,0.34
-3.8159506,-8.66024,0.0027885158,0.39
-3.7931583,-8.646209,0.0028038553,0.38
-3.7635329,-8.6521635,0.0028001512,0.35
-3.726931,-8.644111,0.0038106292,0.34
-3.6983004,-8.651069,0.0038059158,0.39
-3.6646912,-8.649018,0.003810349,0.31
-3.6330721,-8.649972,0.0038117296,0.34
-3.600462,-8.649925,0.004814169,0.39
-3.5836546,-8.647901,0.0048173685,0.32
-3.5490458,-8.64185,0.0048257792,0.38
-3.519427,-8.647807,0.0048222207,0.33
-3.4878125,-8.648761,0.005823664,0.37
-3.4532073,-8.642712,0.0058320924,0.32
-3.4215913,-8.642666,0.005834519,0.38
-3.4037879,-8.637642,0.006840695,0.35
-3.3761606,-8.646601,0.0068341885,0.33
-3.3425515,-8.641552,0.0068415985,0.38
-3.3109317,-8.639507,0.006845982,0.32
-3.2773254,-8.63446,0.007853395,0.38
-3.2467144,-8.637416,0.007852938,0.3
-3.2200854,-8.648376,0.00784456,0.38
-3.1992934,-8.635348,0.007858599,0.35
-3.1686733,-8.635305,0.008861035,0.35
-3.1400554,-8.642263,0.008856676,0.36
-3.1094332,-8.64122,0.008860094,0.36
-3.076826,-8.637175,0.0088665215,0.36
-3.0482066,-8.643132,0.008863171,0.33
-3.016596,-8.641089,0.009867645,0.36
-3.0007913,-8.640067,0.009869884,0.31
-2.9711683,-8.641025,0.009871378,0.37
-2.9375682,-8.633979,0.009880742,0.3
-2.9119346,-8.645942,0.009871584,0.44
-2.8843124,-8.653902,0.009866385,0.31
-2.8487134,-8.638855,0.010883439,0.34
-2.8181038,-8.638812,0.010886012,0.33
-2.8052843,-8.643793,0.010882416,0.33
-2.77069,-8.632748,0.011895619,0.32
-2.7400763,-8.630706,0.011900078,0.32
-2.7134483,-8.6396675,0.011893957,0.34
-2.681836,-8.633624,0.011902246,0.29
-2.6532183,-8.637585,0.011900986,0.41
-2.6236045,-8.638543,0.011902614,0.32
-2.608793,-8.637525,0.012904821,0.32
-2.580174,-8.640485,0.012904529,0.32
-2.5515552,-8.643446,0.012904255,0.32
-2.517956,-8.631401,0.012918277,0.32
-2.4903321,-8.636363,0.012916088,0.29
-2.4657075,-8.654327,0.012901693,0.41
-2.443925,-8.631301,0.013924781,0.31
-2.414305,-8.628261,0.013930156,0.29
-2.387684,-8.638225,0.013923344,0.41
-2.3580656,-8.635184,0.013928739,0.3
-2.329449,-8.637147,0.013929473,0.37
-2.3028233,-8.64511,0.013924563,0.31
-2.2383487,-8.525035,0.017039832,0.0
-2.246456,-8.603039,0.014967951,0.0
-1.3084714,-5.4240804,0.08794326,0.0
-1.2779047,-5.3800426,0.08898215,0.0
-1.2503339,-5.3470078,0.0900106,0.0
-1.2227545,-5.3109736,0.09104182,0.0
-1.1951808,-5.2749395,0.09207288,0.0
-1.174569,-5.261912,0.092082605,0.0
-1.1637679,-5.2538977,0.09208882,0.0
-1.1451442,-5.2468724,0.09209297,0.0
-1.1275316,-5.2468495,0.09309051,0.0
-1.1109027,-5.2478266,0.09308724,0.0
-1.0883082,-5.226797,0.093104154,0.0
-1.0726813,-5.232775,0.09309621,0.0
-1.0570543,-5.238754,0.09308829,0.0
-1.0492448,-5.2427425,0.09308339,0.0
-1.0306247,-5.234718,0.093088366,0.0
-1.0189799,-5.2577004,0.093064934,0.0
-0.99836856,-5.2406735,0.09307814,0.0
-0.98473334,-5.2556543,0.09306207,0.0
-0.9700991,-5.265634,0.09305063,0.0
-0.95930046,-5.25562,0.093058534,0.0
-0.9446697,-5.2665997,0.09304619,0.0
-0.927048,-5.262577,0.0930475,0.0
-0.91142005,-5.268555,0.09303973,0.0
-0.8948028,-5.271533,0.09303465,0.0
-0.87818927,-5.275511,0.09302864,0.0
-0.8595679,-5.264487,0.093036294,0.0
-0.85474604,-5.2844796,0.093017094,0.0
-0.8420876,-5.3014617,0.09299966,0.0
-0.8264606,-5.308441,0.092991106,0.0
-0.80983573,-5.309419,0.09298797,0.0
-0.7991797,-5.3424025,0.09195625,0.0
-0.7865387,-5.3673844,0.09193172,0.0
-0.7778639,-5.4113703,0.09089046,0.0
-0.7670724,-5.401357,0.09089825,0.06
-1.3053373,-8.60584,0.020053085,0.33
-1.2797141,-8.618809,0.020044332,0.28
-1.251101,-8.608773,0.02005586,0.36
-1.2234895,-8.60974,0.020057745,0.28
-1.1978595,-8.617709,0.020053389,0.38
-1.1810739,-8.600689,0.020069765,0.34
-1.1554466,-8.610658,0.020063693,0.34
-1.128826,-8.614627,0.020062922,0.29
-1.0992326,-8.605592,0.021073654,0.36
-1.0726104,-8.607559,0.02107462,0.33
-1.0469805,-8.615529,0.021070344,0.34
-1.0311912,-8.603511,0.021082237,0.34
-1.0035818,-8.603478,0.021085033,0.32
-0.9759689,-8.599446,0.021091254,0.34
-0.94934726,-8.600414,0.021093104,0.34
-0.92371935,-8.610384,0.021087185,0.34
-0.89610535,-8.603352,0.021095973,0.33
-0.8694881,-8.609322,0.021093594,0.35
-0.8546923,-8.601304,0.02110191,0.34
-0.82807446,-8.606273,0.021100398,0.34
-0.80145395,-8.607242,0.02110229,0.35
-0.77285546,-8.598209,0.022112856,0.35
-0.747224,-8.60318,0.02211127,0.34
-0.72060525,-8.60615,0.022111492,0.35
-0.6920089,-8.597117,0.02212204,0.34
-0.67919487,-8.603103,0.022118315,0.35
-0.6525752,-8.603072,0.022121081,0.34
-0.62595695,-8.606042,0.022121333,0.27
-0.5983494,-8.599011,0.022130081,0.35
-0.5717324,-8.60498,0.022127835,0.34
-0.54610103,-8.610952,0.022125503,0.34
-0.5184948,-8.603922,0.022134246,0.28
-0.50469244,-8.602906,0.02213653,0.35
-0.47708714,-8.594875,0.02214609,0.34
-0.45046964,-8.596846,0.022147218,0.34
-0.42385232,-8.600816,0.022146694,0.32
-0.39822063,-8.604788,0.02214608,0.27
-0.37061736,-8.592758,0.023158936,0.35
-0.35780153,-8.601744,0.02215284,0.34
-0.33019844,-8.601714,0.022155762,0.32
-0.3035815,-8.600684,0.022159409,0.35
-0.2769659,-8.592656,0.023168825,0.32
-0.25034842,-8.597628,0.023167532,0.34
-0.22373089,-8.601599,0.023167076,0.34
-0.19711581,-8.596571,0.023174014,0.34
-0.18331446,-8.597555,0.023174664,0.34
-0.15768078,-8.606527,0.023170033,0.33
-0.13008526,-8.5894985,0.023186883,0.32
-0.103464715,-8.600471,0.023180744,0.33
-0.07685007,-8.597442,0.023186041,0.27
-0.050231025,-8.603415,0.023184013,0.35
-0.023621226,-8.592385,0.023195812,0.33
-0.010799822,-8.603373,0.023188256,0.32
0.015817426,-8.605345,0.023189502,0.34
0.04243549,-8.608317,0.023189947,0.34
0.06905015,-8.606289,0.023194445,0.35
0.09664579,-8.598261,0.023203889,0.27
0.12326221,-8.599233,0.023205958,0.35
0.14987785,-8.599206,0.023208836,0.33
0.16269104,-8.597193,0.023211831,0.33
0.18930474,-8.595166,0.023216316,0.32
0.2159202,-8.595139,0.023219198,0.33
0.24253765,-8.597112,0.023220481,0.34
0.26915112,-8.595085,0.023224967,0.34
0.2957742,-8.602058,0.02322227,0.33
