X,Y,Z,Intensity
19.566767,-0.6588472,-1.7219217,0.0
19.568514,-0.53687555,-1.721937,0.36
19.573875,-0.4748899,-1.7219446,0.19
19.57625,-0.41390404,-1.722952,0.36
19.580612,-0.35191843,-1.7229594,0.19
19.583303,-0.32192537,-1.722963,0.36
19.571669,-0.25993973,-1.7219702,0.2
19.57603,-0.1979541,-1.7219775,0.38
19.573406,-0.13696824,-1.7219845,0.21
19.551771,-0.074982606,-1.7199916,0.32
19.537144,-0.013996752,-1.7189984,0.26
18.48088,0.010997393,-1.7290013,0.29
18.48225,0.06898365,-1.7290078,0.32
18.484936,0.097976774,-1.729011,0.29
18.484304,0.15596303,-1.7290175,0.3
18.476675,0.2139493,-1.7290239,0.3
18.472044,0.27193555,-1.7280302,0.3
18.474415,0.3299218,-1.7290363,0.29
18.470783,0.38790807,-1.7280426,0.32
18.470154,0.44589433,-1.7290486,0.3
18.467838,0.47488743,-1.7280517,0.32
18.46921,0.5328737,-1.7290576,0.3
18.464579,0.59086,-1.7290634,0.28
18.46994,0.649846,-1.7300693,0.32
18.46331,0.7078323,-1.729075,0.3
18.470684,0.76581854,-1.7300805,0.31
18.46305,0.82380486,-1.7300861,0.29
18.465738,0.852798,-1.7300888,0.29
18.458107,0.91078424,-1.7300942,0.28
18.454477,0.9687705,-1.7300996,0.29
18.444843,1.0267566,-1.7291048,0.27
18.441212,1.084743,-1.7291099,0.21
18.448591,1.1427294,-1.730115,0.39
18.450954,1.2017155,-1.73112,0.23
18.46065,1.2307087,-1.7321225,0.2
18.467016,1.2896948,-1.7331275,0.38
18.462385,1.3476812,-1.7331322,0.2
18.45975,1.4066672,-1.734137,0.18
18.476128,1.4656535,-1.7361417,0.21
18.415491,1.5196402,-1.730146,0.14
18.40986,1.5776265,-1.7301506,0.4
18.413551,1.6066197,-1.7311527,0.23
18.40392,1.664606,-1.7301571,0.0
18.451286,1.7275918,-1.7361615,0.0
18.486658,1.7895776,-1.740166,0.11
18.496037,1.8485639,-1.7421701,0.21
18.503403,1.90855,-1.7431742,0.2
18.537088,1.9415426,-1.7471763,0.17
18.572466,2.0035286,-1.7521803,0.39
18.58083,2.0645146,-1.7531843,0.25
18.5872,2.1245008,-1.7551881,0.27
18.613573,2.1864865,-1.7581918,0.29
18.643946,2.2494724,-1.7621956,0.26
18.64032,2.3084586,-1.7631991,0.3
18.662,2.3414514,-1.765201,0.26
18.689373,2.404437,-1.7692045,0.29
18.700748,2.4654233,-1.7712078,0.29
18.718124,2.5274093,-1.7742112,0.28
18.748486,2.5923946,-1.7782145,0.27
18.776861,2.6563804,-1.7822175,0.27
18.800552,2.6893733,-1.7852192,0.28
18.802923,2.7503593,-1.7862221,0.3
18.834297,2.8153448,-1.7912251,0.27
18.858662,2.8803306,-1.7942281,0.29
18.886034,2.9453163,-1.7982308,0.29
18.917406,3.0113018,-1.8022336,0.31
18.938786,3.0752873,-1.8062361,0.28
18.966473,3.11028,-1.8092375,0.29
18.99184,3.1762655,-1.8132399,0.29
19.020218,3.2422512,-1.8172424,0.28
19.042585,3.3082366,-1.8212447,0.28
19.064957,3.3742223,-1.8242469,0.3
19.090332,3.440208,-1.828249,0.28
19.125704,3.5091932,-1.8332511,0.27
19.157389,3.5461853,-1.8372523,0.26
19.182764,3.613171,-1.8412541,0.27
19.206137,3.6801565,-1.845256,0.26
19.240505,3.7501416,-1.8502578,0.25
19.260878,3.8171272,-1.8532593,0.18
19.285254,3.8851125,-1.8572608,0.42
19.297623,3.9510982,-1.8602623,0.25
19.326317,3.9880908,-1.8642629,0.24
19.313688,4.049077,-1.864264,0.17
19.348059,4.120062,-1.8692653,0.44
19.354435,4.1850476,-1.8712664,0.25
19.361805,4.2510333,-1.8732673,0.27
19.375177,4.318019,-1.8762683,0.27
19.398869,4.3550115,-1.8792686,0.28
19.427238,4.425997,-1.8842694,0.26
19.445618,4.4939823,-1.8882701,0.27
19.482986,4.567967,-1.8932707,0.29
19.506365,4.637953,-1.8972712,0.29
19.533735,4.7099376,-1.9022715,0.29
19.543114,4.7769237,-1.9052718,0.29
19.566795,4.8159156,-1.9082719,0.3
19.583176,4.8849015,-1.9112719,0.3
19.605543,4.956887,-1.9162719,0.28
19.604923,5.0218725,-1.9172719,0.27
19.63629,5.0968575,-1.9222717,0.32
19.644665,5.164843,-1.9252713,0.28
19.690044,5.2428274,-1.932271,0.3
19.55373,5.2398252,-1.9182705,0.29
19.368101,5.2558165,-1.9002696,0.38
19.275467,5.2968054,-1.8922689,0.24
19.252842,5.355792,-1.8912681,0.24
19.23121,5.4157786,-1.8912673,0.25
19.21959,5.4777656,-1.8912665,0.32
19.225967,5.5447516,-1.8942654,0.32
19.224651,5.5777445,-1.8952649,0.33
19.224031,5.6427307,-1.8972636,0.33
19.213404,5.705717,-1.8972625,0.32
19.18077,5.7627044,-1.8962612,0.32
19.143152,5.816692,-1.8942598,0.32
19.11852,5.8756785,-1.8932582,0.3
19.096891,5.9356656,-1.8932567,0.28
18.99458,5.9366627,-1.883256,0.0
17.148905,5.423715,-1.6832566,0.0
17.017275,5.4417067,-1.6712555,0.0
16.732643,5.4097037,-1.6412545,0.0
16.65601,5.443694,-1.6352533,0.0
14.795318,5.311653,-1.447245,0.11
14.583683,5.288649,-1.4262443,0.0
14.540061,5.3246393,-1.4232427,0.0
14.403433,5.326633,-1.4102416,0.09
14.258795,5.325627,-1.3952407,0.0
13.731705,5.4555717,-1.349231,0.0
13.715401,5.473567,-1.34923,0.0
13.703773,5.5195556,-1.3492279,0.0
13.66115,5.5525455,-1.3462259,0.0
13.648516,5.5985346,-1.3472236,0.0
13.628897,5.640524,-1.3472214,0.0
13.562832,5.943451,-1.353204,0.0
13.544208,5.98644,-1.3532012,0.0
13.549581,6.040428,-1.3561978,0.0
13.561269,6.0714216,-1.3591961,0.0
13.545639,6.1164107,-1.359193,0.0
13.542015,6.1663995,-1.3611897,0.0
13.534396,6.2143884,-1.3621864,0.0
13.535768,6.2673764,-1.3651829,0.0
13.517138,6.3113656,-1.3651795,0.0
13.534517,6.371353,-1.3701755,0.0
13.548214,6.403347,-1.3721734,0.0
13.543583,6.454335,-1.3741696,0.03
13.17594,6.3323426,-1.3341722,0.12
12.182627,5.9563723,-1.224183,0.5
12.970052,6.387319,-1.3171644,0.31
12.03069,5.9533634,-1.2091808,0.35
12.118446,6.0923367,-1.2241718,0.6
11.925808,6.044336,-1.2041721,0.17
11.954185,6.1063232,-1.2101679,0.54
16.842829,8.639044,-1.7840557,0.21
16.788197,8.679033,-1.7810502,0.33
16.77389,8.705029,-1.7810472,0.32
16.742256,8.757017,-1.7810411,0.27
16.742643,8.824005,-1.7840344,0.43
12.483789,6.650233,-1.2851326,0.25
16.675398,8.923983,-1.7830219,0.2
11.807493,6.391249,-1.210141,0.25
11.712858,6.3892436,-1.202139,0.54
11.679545,6.39524,-1.1991378,0.29
11.625918,6.4142323,-1.1951349,0.38
11.598294,6.447223,-1.1941311,0.39
11.573665,6.482214,-1.1941273,0.41
11.542048,6.5122046,-1.1921238,0.42
11.517418,6.5471954,-1.1921198,0.57
11.503107,6.563191,-1.1921179,0.6
11.501477,6.6111803,-1.1941131,0.38
11.476861,6.6451707,-1.193109,0.71
11.596239,6.7631526,-1.2101003,0.41
15.838886,9.271884,-1.7249553,0.34
15.730259,9.275878,-1.7149509,0.36
15.621634,9.2788725,-1.7059464,0.37
15.524318,9.254872,-1.6959457,0.37
15.419697,9.258866,-1.6869414,0.38
15.316064,9.263861,-1.6779368,0.39
15.211439,9.266856,-1.6689326,0.34
15.102804,9.267851,-1.6589282,0.44
15.0101795,9.276845,-1.6509234,0.36
14.906552,9.278839,-1.641919,0.43
14.818238,9.256839,-1.6329184,0.35
14.714609,9.257834,-1.623914,0.43
14.621974,9.265828,-1.6169091,0.36
14.530358,9.271823,-1.6089046,0.37
14.428723,9.272817,-1.5999004,0.42
14.346096,9.284811,-1.5938952,0.3
14.465795,9.393797,-1.6098857,0.58
14.063524,9.262801,-1.567886,0.3
14.162912,9.391783,-1.5838728,0.39
9.309262,6.296087,-0.98308647,0.25
13.961036,9.451762,-1.5698553,0.39
9.323335,6.3700714,-0.9890781,0.18
9.305705,6.402062,-0.9890737,0.25
9.292087,6.4360538,-0.9900691,0.32
9.285453,6.476044,-0.99206394,0.24
9.549862,6.702016,-1.0280446,0.0
13.54059,9.518728,-1.5378257,0.0
13.826998,9.782697,-1.5778008,0.0
12.775874,9.449699,-1.4687974,0.14
12.728556,9.446697,-1.4647955,0.24
12.590927,9.407696,-1.4507942,0.53
12.644311,9.509682,-1.4617813,0.22
12.127025,9.246697,-1.4017947,0.29
12.046396,9.246693,-1.3957905,0.59
12.023081,9.259689,-1.3947871,0.35
11.941458,9.257686,-1.3877829,0.51
11.862834,9.257681,-1.3807787,0.26
11.677195,9.174684,-1.3607816,0.66
11.726574,9.273669,-1.3707684,0.27
11.616949,9.247667,-1.3607663,0.5
11.55532,9.259662,-1.3557608,0.3
11.488001,9.236662,-1.3487607,0.45
11.406374,9.231657,-1.3427569,0.46
11.35675,9.251651,-1.3397506,0.3
11.251117,9.226648,-1.3297486,0.64
11.321505,9.343633,-1.342733,0.0
7.2403817,6.0669374,-0.7970446,0.0
7.2370853,6.082934,-0.7980421,0.0
7.2594485,6.141923,-0.8040344,0.0
10.852661,9.226624,-1.2977244,0.12
10.781034,9.225618,-1.2917202,0.48
10.84642,9.340604,-1.304704,0.0
7.3623652,6.4298697,-0.83099526,0.0
7.343054,6.4338665,-0.8299937,0.0
7.323422,6.458859,-0.82998896,0.0
7.3177943,6.4958506,-0.83198285,0.0
7.28617,6.509844,-0.8309791,0.0
10.2376995,9.258577,-1.2516788,0.22
10.168379,9.226578,-1.24368,0.52
10.111753,9.234573,-1.2406747,0.36
10.05013,9.237568,-1.2356699,0.42
9.980499,9.233564,-1.2296659,0.36
9.919876,9.23656,-1.225661,0.38
9.849247,9.230556,-1.2196573,0.41
9.790626,9.234551,-1.2156523,0.44
9.742305,9.21955,-1.2106518,0.23
9.67768,9.217546,-1.2056475,0.45
9.609054,9.211542,-1.2006437,0.21
9.545408,9.211537,-1.1956391,0.18
9.491788,9.218533,-1.1916338,0.39
9.432166,9.219529,-1.1876292,0.23
9.382538,9.230523,-1.1846234,0.26
9.336226,9.214522,-1.180623,0.27
9.286593,9.225517,-1.1776172,0.29
9.259976,9.25751,-1.177609,0.29
9.242349,9.299502,-1.1795993,0.3
9.277738,9.39349,-1.1895834,0.32
9.305123,9.480478,-1.197568,0.28
9.2985,9.53447,-1.2015568,0.29
9.291189,9.557466,-1.2025515,0.32
9.274566,9.601458,-1.2045413,0.31
9.23995,9.6264515,-1.2035333,0.36
9.195318,9.6424465,-1.2015264,0.27
9.1587,9.665441,-1.2005186,0.21
8.998052,9.560445,-1.181527,0.35
8.851716,9.438453,-1.16154,0.16
8.596055,9.230466,-1.1275619,0.32
9.102525,9.823413,-1.208481,0.24
9.092898,9.876404,-1.2124691,0.33
9.07628,9.921396,-1.2144581,0.3
9.044659,9.950391,-1.214449,0.3
9.037042,10.005383,-1.2184366,0.31
9.03874,10.038378,-1.2204297,0.27
9.014111,10.076371,-1.2224194,0.31
8.993486,10.118363,-1.2244084,0.29
8.955863,10.141357,-1.2233999,0.39
8.910237,10.155353,-1.2213926,0.37
8.8556185,10.158349,-1.217387,0.42
8.823305,10.154346,-1.2153847,0.47
8.759667,10.148344,-1.21038,0.46
8.707052,10.15234,-1.2073741,0.47
8.6554165,10.159335,-1.2043678,0.44
8.595794,10.155333,-1.1993629,0.44
8.506163,10.116332,-1.1903629,0.71
8.47853,10.150326,-1.1913527,0.19
8.457224,10.157323,-1.190349,0.5
8.406595,10.16332,-1.1873426,0.42
8.255948,10.050324,-1.1683534,0.71
11.392885,13.863023,-1.6827971,0.42
8.28111,10.276297,-1.1883043,0.39
10.800941,13.413051,-1.6078376,0.52
10.800642,13.455046,-1.6108273,0.53
7.3033648,9.242367,-1.0404437,0.2
10.800408,13.631027,-1.6257846,0.36
10.797797,13.716019,-1.6327635,0.31
10.789187,13.79401,-1.6377435,0.25
7.091859,9.218353,-1.0254284,0.22
7.0572286,9.235349,-1.024421,0.38
7.0399184,9.243346,-1.0234175,0.29
6.9772916,9.223344,-1.0184158,0.58
6.947673,9.245338,-1.0184077,0.27
6.8920293,9.235335,-1.0134044,0.49
6.8534193,9.244331,-1.0123982,0.36
6.8377943,9.285324,-1.014387,0.39
6.78416,9.276321,-1.0103836,0.53
6.7628407,9.279319,-1.0093806,0.4
6.7152224,9.276317,-1.0063763,0.41
6.6725893,9.281313,-1.0043707,0.42
6.625959,9.280309,-1.0013659,0.42
6.582337,9.282305,-0.9983608,0.42
6.5397162,9.285301,-0.9963555,0.41
6.4990816,9.292297,-0.9943494,0.41
6.465775,9.276297,-0.9913497,0.41
6.4251356,9.283293,-0.9893436,0.42
6.3855195,9.2892885,-0.98733777,0.43
6.3348923,9.280286,-0.9833344,0.41
6.2972693,9.289282,-0.982328,0.42
6.2536383,9.290278,-0.97932297,0.41
6.210004,9.291274,-0.9773178,0.42
6.1696777,9.265274,-0.97231966,0.67
6.048039,9.150279,-0.95533437,0.3
6.0064077,9.152275,-0.9533292,0.47
5.9667845,9.156272,-0.95132375,0.72
5.9731765,9.228263,-0.95830655,0.31
5.966557,9.282256,-0.9622923,0.54
5.91823,9.242257,-0.95629674,0.35
5.8515983,9.205256,-0.9492983,0.62
5.85399,9.272248,-0.9552817,0.38
5.8153577,9.278245,-0.9532757,0.41
5.7697234,9.273242,-0.95027155,0.56
5.73011,9.275238,-0.9482664,0.39
5.691472,9.281235,-0.9462603,0.41
5.668167,9.276234,-0.9452587,0.41
5.6245346,9.273231,-0.94225425,0.41
5.5839067,9.274227,-0.9402491,0.42
5.544274,9.277224,-0.9382435,0.41
5.5036507,9.27722,-0.9362385,0.42
5.464023,9.279217,-0.9342332,0.41
5.4407,9.275215,-0.93223137,0.41
5.398087,9.270213,-0.93022734,0.41
5.355452,9.26721,-0.92722285,0.58
5.3208294,9.276207,-0.9262162,0.4
5.282207,9.278203,-0.92421085,0.42
5.23757,9.2712,-0.921207,0.42
5.1969385,9.270197,-0.91920215,0.57
5.1776237,9.271195,-0.9181995,0.4
5.1379952,9.271193,-0.9161944,0.41
5.095371,9.265189,-0.9131905,0.41
5.061744,9.275187,-0.9131835,0.43
5.023117,9.276183,-0.9111783,0.41
4.9864926,9.28018,-0.9091725,0.41
4.945864,9.277177,-0.9071679,0.41
4.9032273,9.271174,-0.9041639,0.57
4.8839226,9.270173,-0.90316164,0.39
4.8432875,9.267171,-0.90115714,0.41
4.808678,9.272167,-0.9001512,0.41
4.7710447,9.274164,-0.8981456,0.41
4.727422,9.263162,-0.8951428,0.54
4.6927905,9.270158,-0.8941362,0.4
4.6724806,9.267158,-0.8931343,0.41
4.63384,9.267155,-0.8911291,0.41
4.5972223,9.268151,-0.8891238,0.57
4.560594,9.270148,-0.88811827,0.39
4.516957,9.259147,-0.88511527,0.56
4.4853325,9.270143,-0.8841079,0.39
4.4477077,9.26914,-0.88210297,0.41
4.4223967,9.255139,-0.8801033,0.57
4.3867593,9.259136,-0.8790972,0.4
4.354148,9.266133,-0.87809074,0.41
4.3185077,9.27013,-0.87608457,0.41
4.285894,9.277127,-0.876078,0.42
4.2412515,9.262125,-0.8720759,0.54
4.208634,9.269122,-0.87106925,0.4
4.186322,9.260121,-0.8700686,0.54
4.151684,9.265118,-0.86906224,0.39
4.1090574,9.251116,-0.8650601,0.53
4.0784454,9.261113,-0.8650528,0.4
4.0418153,9.26011,-0.86304784,0.55
4.0101843,9.270107,-0.8630404,0.4
3.9715545,9.264106,-0.8610364,0.54
3.9542274,9.267104,-0.86003304,0.39
3.915618,9.258101,-0.8580299,0.54
3.8809757,9.262099,-0.8570236,0.37
3.8423612,9.253097,-0.8540205,0.54
3.8117187,9.266094,-0.8540122,0.39
3.7731075,9.256092,-0.85200924,0.54
3.7404726,9.263089,-0.85100234,0.4
3.7161498,9.248089,-0.849003,0.54
3.6895392,9.266085,-0.84899384,0.39
3.6488981,9.254084,-0.8469911,0.55
3.6192918,9.264081,-0.8459837,0.39
3.5816562,9.258078,-0.8439797,0.54
3.5520186,9.272075,-0.84497106,0.38
3.5154057,9.265073,-0.84196746,0.53
3.4960759,9.262073,-0.84096533,0.37
3.4574509,9.25107,-0.83896255,0.49
3.4298332,9.267068,-0.83895355,0.38
3.391204,9.256065,-0.8369508,0.52
3.361584,9.267063,-0.8369429,0.38
3.3219523,9.25306,-0.8339408,0.52
3.305631,9.25606,-0.83393735,0.39
3.273015,9.258058,-0.8329316,0.52
3.2403843,9.262055,-0.8319252,0.38
3.205756,9.260053,-0.8299203,0.53
3.1731296,9.263051,-0.82991415,0.38
3.1364875,9.257049,-0.8279101,0.52
3.104864,9.262047,-0.8269035,0.37
3.0865612,9.256045,-0.82590234,0.52
3.0549362,9.261044,-0.8248957,0.36
3.0203056,9.258041,-0.823891,0.5
2.988685,9.262039,-0.8228846,0.37
2.951052,9.250038,-0.8208821,0.51
2.9254353,9.271035,-0.8218716,0.37
2.8877919,9.260033,-0.8198686,0.52
2.8714826,9.260032,-0.81886595,0.37
2.8368623,9.25403,-0.81686205,0.52
2.80623,9.262029,-0.81685454,0.37
2.7716005,9.257026,-0.8148503,0.51
2.741968,9.2680235,-0.8158419,0.36
2.7053385,9.2560215,-0.81283945,0.49
2.675723,9.26402,-0.81283206,0.36
2.6553972,9.253019,-0.8108319,0.51
2.6257746,9.262017,-0.81082416,0.36
2.5911534,9.254016,-0.8098207,0.49
2.5645306,9.273013,-0.8108103,0.36
2.5268936,9.257012,-0.8078089,0.5
2.4972746,9.26501,-0.8078013,0.35
2.4636328,9.263008,-0.80679613,0.48
2.448324,9.265007,-0.80679286,0.37
2.4146967,9.260005,-0.80478853,0.5
2.386085,9.270003,-0.8047805,0.35
2.3484352,9.254003,-0.8027789,0.49
2.319811,9.266001,-0.8027702,0.36
2.2882023,9.263999,-0.8017652,0.5
2.2565708,9.265997,-0.800759,0.36
2.2382572,9.256997,-0.7997586,0.5
2.2096272,9.269995,-0.7997495,0.36
2.1720011,9.246993,-0.79675,0.49
2.143365,9.260992,-0.7977406,0.36
2.1137447,9.26799,-0.7977331,0.5
2.0811179,9.2639885,-0.7967285,0.35
2.0607967,9.246988,-0.7937302,0.49
2.0351727,9.270987,-0.795718,0.34
1.9975517,9.243984,-0.79171973,0.6
1.9699166,9.261984,-0.7937091,0.34
1.9382901,9.260982,-0.7927037,0.49
1.9076693,9.26298,-0.79169744,0.35
1.872032,9.245979,-0.78969634,0.6
1.8617324,9.266979,-0.7916878,0.34
1.8261099,9.245976,-0.78868794,0.49
1.797478,9.258976,-0.7886786,0.35
1.7648429,9.253974,-0.7876741,0.6
1.7352208,9.259973,-0.78766674,0.33
1.6995971,9.236972,-0.7846675,0.59
1.6749809,9.26597,-0.78665364,0.32
1.6546508,9.24597,-0.7846563,0.47
1.6270355,9.259968,-0.7856466,0.35
1.5913956,9.238967,-0.78264666,0.6
1.5637686,9.255966,-0.7836361,0.33
1.5311358,9.247966,-0.78263247,0.48
1.5045233,9.266964,-0.7836214,0.37
1.4658798,9.2279625,-0.77862656,0.63
1.1090937,7.4329705,-0.58813804,0.21
1.0834718,7.426968,-0.58713573,0.24
1.0558366,7.4119663,-0.58513594,0.41
1.0342265,7.425964,-0.5861278,0.42
1.0125836,7.4479623,-0.5881171,0.16
1.3004452,9.240957,-0.7775908,0.29
1.2678105,9.229956,-0.77558815,0.58
1.2555023,9.246956,-0.7765802,0.33
1.2218643,9.229955,-0.7745793,0.57
1.1942514,9.243954,-0.7755694,0.32
1.1616184,9.230953,-0.77356726,0.56
1.1329942,9.241952,-0.7745581,0.32
1.1013702,9.231951,-0.77255523,0.57
1.0727435,9.24395,-0.7735457,0.32
1.0524158,9.21095,-0.7705525,0.59
1.0197849,9.193949,-0.7675517,0.58
0.9901627,9.195949,-0.7675452,0.56
0.9595242,9.195948,-0.7675392,0.58
0.92890614,9.187946,-0.76553583,0.77
0.9042892,9.228947,-0.7695174,0.28
0.87566173,9.241945,-0.77050745,0.5
0.8663677,9.283945,-0.7754917,0.29
0.8367471,9.286945,-0.7754848,0.56
0.8111145,9.331944,-0.7794648,0.27
0.7824932,9.345944,-0.78045434,0.51
0.7558789,9.376945,-0.7834387,0.32
0.7392911,9.497946,-0.7953951,0.69
0.7239717,9.5019455,-0.7963906,0.86
0.6933433,9.504945,-0.7963833,0.82
0.66170925,9.499945,-0.7953785,0.84
0.63108397,9.500944,-0.79537183,0.82
0.6004549,9.503944,-0.79536456,0.82
0.5698294,9.504944,-0.7943579,0.83
0.53920996,9.501944,-0.79435253,0.84
0.52389926,9.500943,-0.79334974,0.82
0.4932758,9.499944,-0.79334366,0.84
0.46264163,9.505942,-0.7933353,0.84
0.4320163,9.505942,-0.7933289,0.86
0.4013946,9.502942,-0.7933235,0.86
0.3707711,9.500942,-0.79231775,0.86
0.34214073,9.538943,-0.79629886,0.88
0.3095155,9.502942,-0.7923042,0.47
0.29319108,9.493942,-0.79130375,0.53
0.26255935,9.497943,-0.79129595,0.55
0.2329498,9.500942,-0.7912887,0.53
0.20130657,9.494943,-0.79128397,0.55
0.17169759,9.496943,-0.791277,0.54
0.14005226,9.491943,-0.790272,0.55
0.1257581,9.492944,-0.7902686,0.74
0.09713814,9.5419445,-0.7952458,0.89
0.06651178,9.542944,-0.7952389,0.9
0.03487209,9.529944,-0.79323655,0.91
0.005260857,9.540945,-0.7952264,0.91
-0.026381748,9.529945,-0.7932234,0.91
-0.057007857,9.526945,-0.7932178,0.91
-0.07231597,9.508945,-0.7912206,0.93
-0.09889749,9.65895,-0.80716354,0.7
-0.13560018,9.422943,-0.78223634,0.34
-0.16623324,9.409944,-0.78023416,0.2
-0.1958475,9.407944,-0.78022844,0.43
-0.22648317,9.408944,-0.78022146,0.19
-0.25609747,9.410944,-0.78021437,0.18
-0.27140638,9.483948,-0.7881859,0.17
-0.30100995,9.515949,-0.7911684,0.76
-0.3316299,9.549952,-0.79515,0.88
-0.36231896,9.354944,-0.77521044,0.59
-0.3919362,9.356945,-0.7752033,0.29
-0.42157787,9.304943,-0.7692148,0.59
-0.45120242,9.298944,-0.7692104,0.27
-0.46553284,9.244943,-0.7632259,0.56
-0.49516004,9.241942,-0.7632204,0.25
-0.52480096,9.219942,-0.7612216,0.52
-0.55342376,9.196941,-0.7582233,0.54
-0.5830513,9.197943,-0.7592164,0.54
-0.61268395,9.192944,-0.7582117,0.54
-0.64232206,9.182943,-0.75720865,0.76
-0.65860337,9.247947,-0.7641824,0.32
-0.68825036,9.226946,-0.7621832,0.57
-0.7178645,9.236947,-0.7631731,0.33
-0.7474906,9.235949,-0.7631669,0.55
-0.77711654,9.234949,-0.76316065,0.3
-0.8067492,9.2289505,-0.7631562,0.55
-0.8363669,9.233952,-0.76314783,0.32
-0.85068136,9.224951,-0.7631478,0.55
-0.88130033,9.242953,-0.76513463,0.3
-0.91094255,9.230954,-0.7641322,0.56
-0.94055647,9.236955,-0.76412344,0.31
-0.9701969,9.226954,-0.7641203,0.56
-1.0008097,9.244958,-0.7661071,0.32
-1.0294548,9.220957,-0.7631091,0.55
-1.0457666,9.237959,-0.76509947,0.32
-1.0753926,9.23596,-0.76509345,0.57
-1.1050165,9.234961,-0.7650871,0.31
-1.1336293,9.228962,-0.7650828,0.57
-1.1652659,9.241963,-0.76707095,0.33
-1.1928836,9.223965,-0.7650711,0.57
-1.224518,9.236966,-0.76705927,0.31
-1.2388313,9.230967,-0.76605815,0.57
-1.2704632,9.243969,-0.7680463,0.33
-1.2980863,9.224969,-0.76604676,0.57
-1.329706,9.241971,-0.7680335,0.32
-1.3583418,9.226972,-0.76703227,0.59
-1.3899689,9.239975,-0.76902044,0.33
-1.4032836,9.225975,-0.7680223,0.57
-1.4358994,9.249978,-0.7700063,0.32
-1.4635382,9.226977,-0.7680081,0.57
-1.4961556,9.2489805,-0.7709928,0.33
-1.5237728,9.233982,-0.76999176,0.58
-1.556398,9.251985,-0.7719778,0.32
-1.5840254,9.233986,-0.77097785,0.57
-1.6013547,9.243986,-0.7719703,0.33
-1.6289709,9.229987,-0.77096885,0.57
-1.6615967,9.24599,-0.77295554,0.32
-1.6892333,9.225991,-0.77095634,0.57
-1.7208519,9.236994,-0.772945,0.33
-1.7504847,9.230995,-0.7729403,0.57
-1.7831143,9.243999,-0.77492803,0.32
-1.7964164,9.235999,-0.7739278,0.57
-1.8290434,9.2490015,-0.7759155,0.32
-1.8566804,9.230002,-0.7739159,0.58
-1.8892899,9.247006,-0.7769021,0.32
-1.9179302,9.233007,-0.7759004,0.58
-1.9485441,9.237009,-0.7768918,0.33
-1.9781713,9.232011,-0.77688664,0.6
-1.9984831,9.259015,-0.7798722,0.32
-2.025126,9.234015,-0.7778749,0.59
-2.0567453,9.241018,-0.7788649,0.33
-2.0873709,9.241021,-0.7798577,0.6
-2.1189914,9.247024,-0.7808481,0.34
-2.1456306,9.224024,-0.77885014,0.59
-2.1812458,9.250029,-0.7818322,0.33
-2.1935604,9.235028,-0.7808348,0.58
-2.2281773,9.2550335,-0.7838193,0.34
-2.2558258,9.235034,-0.78182,0.59
-2.2894359,9.251038,-0.78480625,0.33
-2.3170671,9.23504,-0.7838055,0.47
-2.3516893,9.252044,-0.78579104,0.34
-2.377318,9.2280445,-0.7837937,0.59
-2.3966234,9.246047,-0.7857825,0.34
-2.4262486,9.240049,-0.7857776,0.59
-2.4598722,9.251053,-0.7877656,0.34
-2.4855137,9.225054,-0.785769,0.6
-2.5231414,9.25106,-0.78975046,0.34
-2.5497692,9.23206,-0.7877511,0.59
-2.582387,9.239064,-0.7897407,0.34
-2.5977085,9.236066,-0.7897381,0.61
-2.6333275,9.254071,-0.792723,0.34
-2.6569588,9.223071,-0.78972864,0.6
-2.6935732,9.245076,-0.7927118,0.33
-2.7222111,9.232079,-0.7927097,0.48
-2.7558248,9.242083,-0.7946979,0.35
-2.7844572,9.230084,-0.79369545,0.6
-2.8017673,9.236088,-0.79468906,0.34
-2.830394,9.225089,-0.7946862,0.48
-2.870032,9.251096,-0.797667,0.34
-2.8966632,9.232097,-0.79666764,0.5
-2.9292767,9.237102,-0.7986579,0.36
-2.9599128,9.231105,-0.7986527,0.49
-2.9935317,9.23811,-0.80064195,0.35
-3.0068626,9.2261095,-0.79964316,0.5
-3.0444627,9.249116,-0.80262554,0.37
-3.0700934,9.227117,-0.8016275,0.48
-3.106736,9.239122,-0.80361414,0.36
-3.136348,9.233126,-0.80360913,0.49
-3.169989,9.23513,-0.80460024,0.36
-3.1843035,9.229132,-0.804599,0.5
-3.2199187,9.2411375,-0.8065859,0.34
-3.2465458,9.223138,-0.8055861,0.5
-3.284165,9.240145,-0.80857056,0.35
-3.3147988,9.233149,-0.80856574,0.49
-3.3464324,9.229153,-0.80955946,0.36
-3.3760462,9.222156,-0.8095549,0.5
-3.3993497,9.24416,-0.81254095,0.36
-3.4269958,9.226162,-0.81154096,0.5
-3.4626095,9.236168,-0.8135285,0.36
-3.4942384,9.232172,-0.8145222,0.5
-3.526879,9.2291765,-0.8155154,0.37
-3.5604897,9.233181,-0.8165057,0.53
-3.5971143,9.243188,-0.81949294,0.37
-3.6227565,9.220188,-0.8174953,0.5
-3.6440547,9.235193,-0.8194844,0.37
-3.6786854,9.238199,-0.8214748,0.5
-3.7063162,9.222201,-0.820474,0.36
-3.7389355,9.221206,-0.8214664,0.5
-3.7795606,9.240214,-0.8254492,0.36
-3.8071907,9.224216,-0.8244485,0.5
-3.827497,9.2342205,-0.8264397,0.38
-3.8611221,9.234226,-0.82743144,0.53
-3.8967538,9.238232,-0.82942116,0.37
-3.9263825,9.227235,-0.829418,0.53
-3.964011,9.236242,-0.83140534,0.37
-3.9916468,9.219244,-0.83040494,0.53
-4.0302596,9.232251,-0.83339053,0.38
-4.0465736,9.230254,-0.83338726,0.52
-4.0792017,9.226259,-0.83438075,0.39
-4.1118283,9.222264,-0.8353742,0.51
-4.1524544,9.237271,-0.83835846,0.37
-4.1780896,9.215275,-0.83736044,0.62
-4.1977105,9.181273,-0.8343686,0.4
-4.2343454,9.18528,-0.836358,0.4
-4.2536564,9.190285,-0.83835137,0.34
-4.288275,9.191291,-0.8393424,0.45
-4.327902,9.202298,-0.8423284,0.34
-4.3585324,9.192302,-0.8423247,0.37
-4.397153,9.20131,-0.84431165,0.34
-4.4477744,9.236322,-0.8502857,0.38
-4.474394,9.218325,-0.849286,0.54
-4.4997215,9.233332,-0.852274,0.39
-4.531338,9.226336,-0.8522689,0.53
-4.5679774,9.227343,-0.8542594,0.38
-4.6016026,9.223349,-0.85525256,0.54
-4.6402144,9.231357,-0.85723996,0.39
-4.668858,9.21436,-0.85723937,0.54
-4.708475,9.223368,-0.86022604,0.4
-4.7327805,9.237373,-0.8622146,0.41
-4.7584124,9.215377,-0.8612168,0.55
-4.7970314,9.221384,-0.86320484,0.4
-4.832674,9.218391,-0.8651971,0.57
-4.8712883,9.2244,-0.86718524,0.38
-4.898919,9.206402,-0.86618537,0.52
-4.9475365,9.231415,-0.8711636,0.38
-4.9578695,9.213414,-0.87016803,0.53
-4.998484,9.222424,-0.8721544,0.4
-5.0391135,9.229433,-0.8751416,0.42
-5.0677404,9.213436,-0.8751407,0.57
-5.1073575,9.219445,-0.8771285,0.4
-5.140996,9.211451,-0.8781232,0.56
-5.179619,9.214459,-0.88011247,0.4
-5.197926,9.214463,-0.8811079,0.55
-5.2425556,9.227473,-0.8840918,0.4
-5.2711864,9.210478,-0.8840913,0.54
-5.313813,9.219488,-0.88707715,0.4
-5.3534327,9.223496,-0.88906574,0.57
-5.3870707,9.214502,-0.8900609,0.4
-5.426686,9.218512,-0.89204943,0.43
-5.4509926,9.228518,-0.8940395,0.41
-5.485624,9.221524,-0.8950336,0.41
-5.521242,9.217532,-0.8970263,0.41
-5.558873,9.215541,-0.89901775,0.56
-5.6025047,9.22355,-0.9010037,0.4
-5.636123,9.215558,-0.90299857,0.41
-5.6747546,9.214565,-0.9039893,0.41
-5.6950808,9.21457,-0.90498424,0.58
-5.734687,9.21758,-0.90797323,0.39
-5.7753158,9.219588,-0.9099623,0.41
-5.812943,9.216597,-0.91195416,0.41
-5.851574,9.214605,-0.9139453,0.43
-5.8931923,9.218616,-0.91593343,0.45
-5.86486,9.103598,-0.90398586,0.53
-5.8771734,9.091599,-0.9039876,0.33
-5.8988223,9.060601,-0.90199447,0.72
-6.0104094,9.17964,-0.9189197,0.28
-6.0700235,9.211657,-0.9248921,0.42
-6.104648,9.202663,-0.92588717,0.57
-6.1532598,9.216677,-0.92986953,0.39
-6.175573,9.219683,-0.9308628,0.41
-6.2221975,9.228694,-0.93384755,0.42
-6.2538285,9.2137,-0.9348457,0.42
-6.2984576,9.218712,-0.9378326,0.42
-6.3390927,9.216722,-0.9398233,0.42
-6.379705,9.216732,-0.9418132,0.41
-6.4173403,9.209741,-0.94380665,0.43
-6.4466386,9.223749,-0.94679374,0.41
-6.483276,9.214758,-0.94778824,0.42
-6.5169077,9.201766,-0.9487851,0.7
-6.5295525,9.156764,-0.9448,0.33
-6.5321956,9.097759,-0.93982303,0.36
-6.5538383,9.066762,-0.93883014,0.49
-6.5924535,9.062771,-0.94082224,0.45
-6.735044,9.208822,-0.96172816,0.29
-6.74835,9.197824,-0.9607293,0.52
-6.804975,9.216841,-0.9657076,0.31
-6.831596,9.193846,-0.9657103,0.52
-6.890232,9.213862,-0.9706877,0.3
-6.9208565,9.195869,-0.9706874,0.54
-6.97047,9.204884,-0.9746714,0.3
-7.0011024,9.185889,-0.97467154,0.52
-7.0444236,9.213903,-0.9796495,0.3
-7.073046,9.192909,-0.9796509,0.52
-7.127677,9.205927,-0.98463213,0.3
-7.1643033,9.194935,-0.9856276,0.53
-7.218916,9.208952,-0.9906084,0.3
-7.246551,9.1849575,-0.98961127,0.52
-7.292853,9.216972,-0.9955869,0.3
-7.3254905,9.19898,-0.9955861,0.52
-7.3771124,9.206995,-0.99957013,0.3
-7.4167476,9.198006,-1.001564,0.52
-7.4673595,9.20502,-1.0045487,0.3
-7.503992,9.19203,-1.006545,0.53
-7.5576167,9.201046,-1.0105281,0.31
-7.579926,9.200052,-1.0115229,0.53
-7.637555,9.21307,-1.0165033,0.3
-7.6771874,9.203081,-1.0184977,0.53
-7.7258077,9.205094,-1.0214849,0.3
-7.7634416,9.192105,-1.022481,0.53
-7.8260565,9.211125,-1.0284578,0.31
-7.8556895,9.188131,-1.0284599,0.54
-7.898001,9.210146,-1.0324405,0.32
-7.937631,9.199157,-1.0344353,0.54
-7.9972568,9.212175,-1.0394152,0.31
-8.031883,9.195184,-1.0404137,0.53
-8.092503,9.209205,-1.0453931,0.32
-8.127136,9.191213,-1.046392,0.53
-8.191765,9.208234,-1.0513691,0.3
-8.207066,9.198237,-1.0523696,0.49
-8.268694,9.211258,-1.0573491,0.29
-8.306325,9.196268,-1.058346,0.5
-8.36494,9.206287,-1.0633276,0.3
-8.405581,9.193298,-1.064323,0.5
-8.466203,9.204318,-1.0693035,0.3
-8.508831,9.194331,-1.0722973,0.52
-8.548132,9.210344,-1.075281,0.31
-8.586761,9.195354,-1.0772779,0.52
-8.654387,9.212378,-1.0832542,0.3
-8.676029,9.177382,-1.0822636,0.64
-6.258677,6.4223895,-0.7010087,0.34
-6.2713103,6.3953886,-0.70001787,0.29
-6.2799563,6.363387,-0.6980301,0.46
-6.277289,6.339383,-0.6960414,0.45
-6.3019238,6.3253884,-0.6970422,0.43
-6.3235555,6.3083916,-0.6970451,0.3
-6.3421836,6.288394,-0.6970499,0.52
-6.3768244,6.284403,-0.69904417,0.3
-6.431441,6.3024197,-0.70402426,0.15
-9.174659,9.192545,-1.1181359,0.45
-9.25427,9.218574,-1.1251056,0.3
-9.28791,9.194583,-1.1261077,0.51
-9.354531,9.2056055,-1.1320869,0.3
-9.408158,9.202623,-1.1350752,0.48
-9.464782,9.202642,-1.1390615,0.28
-9.505414,9.185656,-1.1410588,0.48
-9.57304,9.195678,-1.1460382,0.38
-9.603357,9.196689,-1.1490304,0.46
-9.671975,9.207713,-1.1550093,0.29
-9.718608,9.195727,-1.157003,0.5
-9.7802305,9.19875,-1.161987,0.3
-9.823858,9.1837635,-1.1639827,0.5
-9.905473,9.205793,-1.1719537,0.3
-9.939112,9.179803,-1.1719568,0.5
-10.000419,9.209827,-1.1789291,0.3
-10.0420475,9.19184,-1.1809268,0.51
-10.111665,9.200865,-1.1869062,0.29
-10.151301,9.179877,-1.1879058,0.56
-10.213927,9.1809,-1.1928903,0.43
-9.920683,8.845774,-1.1461054,0.0
-9.674407,8.559667,-1.1072884,0.11
-10.457117,9.202988,-1.2128224,0.27
-10.506749,9.190004,-1.2158163,0.48
-10.580371,9.199032,-1.2217947,0.38
-10.628998,9.185048,-1.2247891,0.46
-10.695631,9.186073,-1.2297728,0.36
-10.742942,9.19909,-1.233756,0.46
-10.739584,9.138085,-1.2297833,0.49
-10.913817,9.176151,-1.2457252,0.55
-10.997447,9.190183,-1.2526991,0.16
-11.049069,9.177202,-1.2566926,0.52
-11.063713,9.131204,-1.2537093,0.36
-11.172006,9.195248,-1.2666556,0.34
-11.22963,9.186269,-1.2706457,0.43
-11.312259,9.197301,-1.2786213,0.35
-11.362889,9.181318,-1.2806163,0.45
-11.436515,9.184347,-1.2865976,0.36
-11.504148,9.181373,-1.292583,0.46
-11.571765,9.179398,-1.2975678,0.35
-11.611087,9.181413,-1.3005576,0.5
-11.698697,9.195447,-1.3085307,0.26
-11.74534,9.173463,-1.3105296,0.54
-11.829957,9.183496,-1.318505,0.27
-11.902587,9.182524,-1.3244884,0.46
-11.977217,9.182552,-1.3304709,0.78
-11.950866,9.102538,-1.3225127,0.48
-9.032067,6.751294,-0.9332487,0.28
-9.022722,6.6992865,-0.929275,0.29
-8.910402,6.567234,-0.9113613,0.12
-8.93403,6.5432405,-0.91136736,0.23
-8.964662,6.52425,-0.9133696,0.31
-8.991307,6.5012565,-0.9133746,0.0
-8.983962,6.45225,-0.91039926,0.0
-7.9566035,5.6478076,-0.77400225,0.0
-7.886276,5.5567737,-0.76306087,0.11
-7.8769054,5.513765,-0.7590836,0.14
-7.8725524,5.4737587,-0.75610405,0.22
-7.9011827,5.458767,-0.75810534,0.2
-7.9098225,5.4287667,-0.75711817,0.51
-7.9354663,5.4107733,-0.7581216,0.27
-7.9407816,5.3967733,-0.7571274,0.55
-7.9714155,5.3827825,-0.75912786,0.33
-7.978068,5.3507805,-0.7571422,0.57
-8.009695,5.33779,-0.75914204,0.3
-8.028318,5.3157935,-0.759149,0.51
-8.045965,5.291797,-0.7591572,0.38
-8.066596,5.270802,-0.76016337,0.44
-8.077914,5.260805,-0.760166,0.47
-8.093554,5.2358074,-0.7601751,0.38
-8.119189,5.2178144,-0.7611788,0.43
-8.1588125,5.2098274,-0.7641746,0.34
-8.146458,5.165818,-0.76019907,0.0
-10.428103,6.6288037,-1.042001,0.23
-10.435426,6.6108055,-1.042008,0.26
-10.482052,6.5968227,-1.0450047,0.18
-10.496696,6.5608253,-1.044019,0.17
-10.526336,6.5348353,-1.045025,0.42
-14.614954,9.155619,-1.5498714,0.2
-14.70459,9.149656,-1.5568539,0.38
-14.787217,9.139691,-1.5638396,0.34
-14.869532,9.159727,-1.5718114,0.4
-15.004148,9.181784,-1.5847704,0.34
-15.13277,9.198839,-1.5967331,0.41
-15.180403,9.164859,-1.5997382,0.32
-15.249042,9.142888,-1.6047329,0.57
-10.653786,6.234865,-1.039144,0.0
-10.684094,6.2318764,-1.041139,0.0
-10.680748,6.184872,-1.0381628,0.1
-15.728856,9.145095,-1.6466229,0.29
-15.836485,9.144141,-1.6565989,0.39
-15.922121,9.129178,-1.6625867,0.4
-16.00575,9.1132145,-1.6695753,0.36
-16.069065,9.117242,-1.6755593,0.34
-16.144703,9.095275,-1.6815526,0.34
-16.256329,9.094324,-1.691528,0.38
-16.372953,9.095374,-1.7015011,0.34
-16.459587,9.078412,-1.7084898,0.43
-16.571213,9.075461,-1.718466,0.38
-16.69884,9.080519,-1.730435,0.32
-16.774147,9.089551,-1.7374139,0.56
-17.618626,9.492927,-1.834031,0.25
-17.76426,9.501992,-1.8479937,0.28
-17.762905,9.430991,-1.8440282,0.21
-17.626589,9.285932,-1.8251284,0.3
-17.655231,9.231942,-1.824148,0.71
-17.687878,9.179958,-1.8251659,0.29
-17.659216,9.128945,-1.8201969,0.5
-17.70885,9.086967,-1.8222061,0.37
-17.83348,9.083024,-1.8331803,0.36
-17.970116,9.0840845,-1.8461494,0.35
-18.088741,9.076139,-1.8571271,0.36
-18.213371,9.070195,-1.8681022,0.35
-18.346998,9.068255,-1.8800735,0.35
-18.463312,9.091308,-1.8920364,0.34
-18.601929,9.091372,-1.9050058,0.23
-18.600582,9.019371,-1.9010413,0.5
-18.699226,8.996416,-1.9090308,0.39
-18.988821,9.068548,-1.9399314,0.35
-19.128452,9.064612,-1.9529026,0.33
-19.26308,9.057674,-1.9648763,0.34
-19.399387,9.086736,-1.978832,0.31
-19.412039,9.019743,-1.9768623,0.4
-19.440685,8.960757,-1.9768852,0.47
-19.730295,9.02389,-2.0067904,0.2
-19.872925,9.016955,-2.0197625,0.38
-19.862581,8.937953,-2.015804,0.29
-20.130863,9.025075,-2.044702,0.3
-20.33049,9.041167,-2.0636501,0.32
-16.960726,7.4326305,-1.6761905,0.26
-17.178337,7.4687295,-1.6981254,0.26
-17.150991,7.3937173,-1.6921695,0.43
-17.453596,7.4648557,-1.7240684,0.0
-16.120468,6.815245,-1.5696859,0.0
-16.058802,6.7592163,-1.5617279,0.12
-16.035463,6.6902056,-1.5567685,0.23
-16.033115,6.631204,-1.5537995,0.2
-16.05076,6.581212,-1.5538218,0.24
-16.207378,6.590284,-1.568784,0.16
-17.285511,6.9217806,-1.6853838,0.48
-17.388819,6.9338284,-1.6953555,0.3
-17.242493,6.811761,-1.67645,0.37
-17.223148,6.7427526,-1.6724901,0.41
-17.296793,6.7107873,-1.6784912,0.22
-17.24445,6.6287622,-1.6695453,0.48
-17.412079,6.633841,-1.6865073,0.45
-17.501717,6.6078825,-1.6935021,0.19
-16.38421,6.141364,-1.5679827,0.08
-16.375866,6.0803604,-1.5650169,0.16
-16.38051,6.0253625,-1.5630451,0.17
-16.367172,5.9623556,-1.5590814,0.22
-16.372814,5.908359,-1.5581092,0.32
-16.388462,5.857366,-1.5581332,0.34
-16.417118,5.8103795,-1.5591525,0.37
-16.42844,5.7863846,-1.5591631,0.31
-16.464088,5.7424016,-1.5611794,0.3
-16.48973,5.6954136,-1.5621995,0.26
-16.51438,5.6474247,-1.5622203,0.0
-16.585024,5.615458,-1.5682231,0.0
-16.61267,5.5684714,-1.5692428,0.0
-16.670315,5.531499,-1.5732511,0.1
-17.297544,5.719794,-1.6420194,0.14
-17.53717,5.7419066,-1.6659578,0.3
-17.630808,5.7139516,-1.6739537,0.31
-17.673458,5.6679726,-1.67697,0.43
-17.658115,5.602966,-1.6730087,0.36
-17.687763,5.5529804,-1.6740298,0.37
-17.70008,5.527987,-1.6750411,0.34
-17.826727,5.5080476,-1.6870259,0.45
-17.740389,5.421007,-1.6750916,0.41
-18.048002,5.4581537,-1.7070079,0.34
-18.105642,5.416182,-1.7110193,0.33
-18.267277,5.4052596,-1.7269921,0.43
-18.263931,5.3432593,-1.7250271,0.38
-18.693207,5.4424644,-1.7708842,0.34
-18.676863,5.375458,-1.7669247,0.35
-19.049473,5.4236364,-1.8058215,0.28
-18.878155,5.309556,-1.7849201,0.42
-19.049788,5.2966394,-1.8018922,0.33
-19.241417,5.2887325,-1.8208574,0.34
-19.218073,5.218723,-1.8159014,0.45
-19.366383,5.2287946,-1.8318653,0.4
-19.322042,5.1527753,-1.8249171,0.34
-19.682657,5.187949,-1.8618237,0.38
-19.635324,5.1099286,-1.8548772,0.15
-19.445,4.994839,-1.832981,0.58
-23.025293,5.873563,-2.2167547,0.21
-19.594292,4.9069147,-1.8460003,0.28
-23.08528,5.775596,-2.2197971,0.21
-23.112934,5.7076135,-2.2208297,0.33
-22.963608,5.594545,-2.2029238,0.0
-22.010357,5.2830873,-2.0982945,0.0
-21.929018,5.192052,-2.088363,0.06
-22.18131,5.1101794,-2.111358,0.3
-23.132559,5.298642,-2.2120569,0.16
-23.262203,5.2547083,-2.2240553,0.25
-23.304865,5.1887326,-2.2270844,0.39
-23.346521,5.122757,-2.2301133,0.23
-23.520163,5.086845,-2.2470987,0.23
-23.643818,5.037909,-2.2581015,0.3
-23.590155,4.9878845,-2.2511413,0.19
-23.50882,4.894849,-2.2412112,0.39
-23.439484,4.804819,-2.2322772,0.23
-23.396149,4.720802,-2.2263346,0.18
-23.382805,4.6437993,-2.223382,0.41
-23.364471,4.5647936,-2.2194316,0.23
-23.342134,4.4857864,-2.2154822,0.18
-23.316463,4.4437766,-2.2125118,0.41
-23.28813,4.363766,-2.207564,0.23
-23.258785,4.284755,-2.2026165,0.2
-23.224455,4.203742,-2.197671,0.38
-23.205114,4.126737,-2.19472,0.19
-23.178774,4.048728,-2.1907716,0.36
-23.151434,3.9707177,-2.1858232,0.2
-23.120768,3.9287045,-2.1818542,0.34
-23.076435,3.8476863,-2.1759112,0.16
-23.060091,3.7726822,-2.172959,0.14
-23.02675,3.6946695,-2.1680121,0.18
-22.988417,3.6156545,-2.1630673,0.21
-22.95308,3.5376408,-2.158121,0.17
-22.922743,3.46063,-2.1541734,0.31
-22.86607,3.4166033,-2.1472113,0.2
-22.82174,3.337585,-2.1412678,0.18
-22.788397,3.261572,-2.1363204,0.33
-22.747057,3.1845555,-2.1313753,0.19
-22.702724,3.106537,-2.1254313,0.24
-22.66839,3.0305235,-2.1204846,0.21
-22.63505,2.9555109,-2.1165369,0.18
-22.596378,2.9154932,-2.1115692,0.39
-22.560038,2.8404787,-2.1066222,0.22
-22.532701,2.7664695,-2.1036732,0.18
-22.502365,2.6924572,-2.0987246,0.41
-22.476027,2.6194484,-2.095775,0.24
-22.446686,2.5464375,-2.0918257,0.18
-22.416346,2.473426,-2.087877,0.41
-22.368677,2.4334033,-2.0819113,0.23
-22.351336,2.3623981,-2.078959,0.18
-22.317999,2.2893856,-2.075011,0.42
-22.293665,2.2173772,-2.0720608,0.24
-22.251326,2.1443596,-2.0671148,0.16
-22.238987,2.074357,-2.0651612,0.43
-22.21664,2.0043488,-2.0612094,0.25
-22.17597,1.9663305,-2.0572417,0.25
-22.147635,1.8953197,-2.053292,0.26
-22.124292,1.8253117,-2.050341,0.25
-22.106956,1.7553062,-2.0473886,0.2
-22.078615,1.6852959,-2.0444386,0.0
-22.12428,1.620323,-2.048471,0.1
-22.030613,1.5792772,-2.0385156,0.13
-21.954271,1.5062416,-2.0295777,0.16
-21.94193,1.4382396,-2.0286236,0.18
-21.942589,1.3712432,-2.0276663,0.4
-21.943256,1.3032477,-2.02771,0.24
-21.932905,1.2362458,-2.0257552,0.18
-21.930574,1.1682482,-2.0247993,0.41
-21.910896,1.13424,-2.0228252,0.23
-21.913557,1.0672452,-2.0228682,0.2
-21.909225,0.9992468,-2.0219128,0.26
-21.906883,0.93224907,-2.020957,0.21
-21.904543,0.8652521,-2.021001,0.18
-21.9022,0.79825443,-2.0200453,0.39
-21.900864,0.73125786,-2.0200894,0.23
-21.898197,0.69725806,-2.0191119,0.18
-21.90685,0.63126653,-2.0201538,0.41
-21.897509,0.5642657,-2.0191994,0.24
-21.896172,0.49726847,-2.0182438,0.16
-21.913837,0.4302818,-2.0202847,0.42
-21.905497,0.3632814,-2.0193303,0.25
-21.925163,0.2962956,-2.021371,0.23
-21.902485,0.2632854,-2.0183973,0.18
-21.910149,0.19629355,-2.0194402,0.43
-21.90881,0.12929699,-2.0194852,0.25
-21.907473,0.06230042,-2.01953,0.17
-20.65403,-0.013309974,-2.0224187,0.43
-20.65463,-0.08030563,-2.022371,0.25
-20.647226,-0.14629777,-2.022323,0.19
-20.64953,-0.18029645,-2.0222993,0.41
-20.657131,-0.24729595,-2.0232534,0.23
-20.644728,-0.31328446,-2.0212042,0.18
-20.668335,-0.38129243,-2.024161,0.4
-20.655931,-0.44728163,-2.0231123,0.22
-20.66653,-0.51428246,-2.0240674,0.2
-20.668133,-0.58127856,-2.0240207,0.36
-20.657442,-0.61527073,-2.0229948,0.18
-20.656034,-0.6812656,-2.0229485,0.38
-20.64964,-0.7482581,-2.0229006,0.22
-20.648241,-0.8152529,-2.0228536,0.18
-20.631842,-0.88123965,-2.0208044,0.39
-20.628447,-0.9482336,-2.0207572,0.24
-20.614048,-1.0142219,-2.0197089,0.16
-20.626348,-1.0482258,-2.0206878,0.44
-20.605951,-1.1142108,-2.0186381,0.25
-20.618559,-1.1822131,-2.020594,0.25
-20.613155,-1.2482061,-2.0205476,0.27
-20.750748,-1.3232718,-2.0345235,0.26
-20.737354,-1.3902606,-2.033475,0.26
-20.732956,-1.4572539,-2.0334284,0.27
-20.717556,-1.5232419,-2.0323806,0.28
-20.71686,-1.5572392,-2.0323572,0.27
-20.716461,-1.6242352,-2.0333116,0.27
-20.782063,-1.6972638,-2.040275,0.27
-20.754663,-1.7622459,-2.0382257,0.24
-20.740263,-1.8282343,-2.0371783,0.28
-20.593878,-1.8831557,-2.0221124,0.47
-20.372496,-1.9300392,-1.999037,0.25
-20.338799,-1.9600202,-1.9960104,0.23
-20.297411,-2.0229952,-1.99196,0.24
-20.268011,-2.0859766,-1.9899122,0.33
-20.23362,-2.148955,-1.9868635,0.3
-20.198223,-2.2109334,-1.9838152,0.34
-20.155834,-2.2729082,-1.9797659,0.33
-20.109434,-2.332881,-1.9757171,0.28
-20.09874,-2.3648736,-1.9746939,0.33
-20.048346,-2.4248447,-1.9706444,0.31
-20.02695,-2.48783,-1.9685987,0.32
-19.98456,-2.5488048,-1.9645505,0.32
-19.965166,-2.6117916,-1.9635054,0.32
-19.913774,-2.6707625,-1.9594569,0.29
-19.906078,-2.7027562,-1.9584345,0.33
-19.87668,-2.7637382,-1.956389,0.32
-19.840292,-2.8247166,-1.9533423,0.32
-19.756907,-2.8786712,-1.9452912,0.27
-19.707514,-2.9366434,-1.9412442,0.29
-19.66112,-2.9946165,-1.9371978,0.44
-19.65072,-3.0576081,-1.9371551,0.36
-19.624031,-3.0865927,-1.9341314,0.33
-19.56764,-3.1425612,-1.9290847,0.3
-19.533243,-3.2015412,-1.9270403,0.23
-19.389864,-3.2434664,-1.9119862,0.18
-15.741855,-2.7076578,-1.5276353,0.13
-15.490498,-2.7185318,-1.5015813,0.18
-15.300123,-2.737436,-1.4815339,0.16
-15.148451,-2.737361,-1.4665055,0.16
-15.056076,-2.772314,-1.4574665,0.34
-13.7758255,-2.5926821,-1.3223397,0.23
-14.940308,-2.8522549,-1.4463955,0.23
-14.8829155,-2.8912258,-1.4413608,0.2
-14.872537,-2.9402194,-1.4413288,0.26
-14.866148,-2.9892154,-1.4412975,0.37
-14.84346,-3.0102038,-1.4392805,0.63
-14.710074,-3.0331376,-1.426242,0.57
-14.806684,-3.1031837,-1.437217,0.15
-14.84189,-3.2101996,-1.4431584,0.66
-14.8675,-3.2662113,-1.447129,0.26
-14.800431,-3.3281767,-1.4410794,0.76
-14.835036,-3.386193,-1.4460506,0.32
-14.842642,-3.438196,-1.4480208,0.45
-14.811261,-3.4821799,-1.4459887,0.52
-14.817868,-3.5341818,-1.4469588,0.32
-14.867469,-3.5962055,-1.4539305,0.6
-14.637805,-3.5680935,-1.4299064,0.33
-13.864527,-3.4357183,-1.3478477,0.13
-13.883145,-3.4887269,-1.3508197,0.16
-14.850611,-3.7711942,-1.4558234,0.29
-14.858231,-3.825197,-1.4577929,0.51
-14.0389595,-3.671801,-1.3707393,0.66
-8.261513,-2.2580166,-0.74955946,0.27
-8.215829,-2.260996,-0.7455504,0.3
-8.169449,-2.2779763,-0.7415335,0.34
-8.0870905,-2.2859387,-0.73251575,0.27
-8.038715,-2.301918,-0.72849923,0.18
-7.9953604,-2.3199,-0.72448254,0.46
-7.8739853,-2.3148437,-0.7114658,0.24
-7.905597,-2.3518622,-0.716451,0.14
-7.9079084,-2.366864,-0.7164433,0.4
-7.843551,-2.3778362,-0.7104272,0.0
-7.786179,-2.3898115,-0.70541185,0.0
-7.7418184,-2.4057925,-0.7003964,0.0
-7.6754537,-2.4147637,-0.69438136,0.0
-7.622078,-2.426741,-0.6893667,0.0
-7.588706,-2.4447277,-0.6863522,0.0
-7.5430207,-2.4447079,-0.68234515,0.0
-7.503655,-2.4606917,-0.6783308,0.0
-7.4812865,-2.4816835,-0.6763165,0.0
-7.4359045,-2.494665,-0.6723029,0.0
-7.42153,-2.5176606,-0.67128885,0.0
-7.395154,-2.5366511,-0.6692751,0.0
-7.353779,-2.5506349,-0.6662618,0.0
-7.331109,-2.5576255,-0.66425484,0.0
-7.2987204,-2.5736132,-0.6612419,0.0
-7.2703495,-2.5916028,-0.65922856,0.0
-7.252989,-2.6135976,-0.65821487,0.0
-7.2286158,-2.632589,-0.6562017,0.0
-7.2362194,-2.661595,-0.6571882,0.13
-7.211849,-2.6805866,-0.6551751,0.14
-7.215166,-2.6955895,-0.656168,0.37
-7.1957808,-2.7155836,-0.65515524,0.24
-7.201397,-2.744589,-0.65614146,0.26
-7.199032,-2.7715912,-0.6571277,0.28
-7.190647,-2.7955904,-0.65711457,0.3
-7.175277,-2.817586,-0.6561014,0.29
-7.178567,-2.8315892,-0.65709496,0.3
-7.166195,-2.8545866,-0.6570819,0.32
-7.1598163,-2.8795865,-0.65706867,0.29
-7.1584396,-2.906589,-0.6580551,0.31
-7.1430717,-2.9285848,-0.65704226,0.34
-7.1446896,-2.9565887,-0.6580287,0.33
-7.1443014,-2.9835916,-0.6590154,0.29
-7.1336217,-2.993588,-0.6580092,0.36
-7.13625,-3.0225928,-0.6599953,0.31
-7.1388545,-3.0505967,-0.660982,0.39
-7.125491,-3.0735934,-0.65996915,0.32
-7.1261115,-3.1015968,-0.66095567,0.32
-7.1147294,-3.1245947,-0.6609431,0.34
-7.1183414,-3.1535997,-0.6629296,0.29
-7.113652,-3.165599,-0.6629232,0.39
-7.020312,-3.155559,-0.65291625,0.0
-6.9665494,-3.1875408,-0.64889425,0.0
-7.0901566,-3.2686005,-0.663871,0.0
-7.0551867,-3.4366055,-0.6677874,0.0
-7.0688105,-3.4716146,-0.6697725,0.0
-8.259115,-4.0441604,-0.8076439,0.0
-8.184436,-4.0261273,-0.7996434,0.0
-8.117075,-4.0281,-0.7936343,0.0
-8.028725,-4.0200624,-0.7846275,0.0
-7.9733477,-4.02604,-0.7796181,0.0
-7.046838,-4.0786734,-0.69449264,0.0
-7.0427804,-4.7857494,-0.7301837,0.0
-7.0534034,-4.8257575,-0.73316747,0.0
-7.047025,-4.854758,-0.73415464,0.0
-7.0353184,-4.862755,-0.73415035,0.0
-7.030951,-4.8937564,-0.7351369,0.0
-7.023582,-4.922757,-0.7361241,0.0
-7.0171995,-4.9517574,-0.73711133,0.0
-7.012809,-4.981759,-0.7380984,0.05
-7.019426,-5.0197654,-0.7410829,0.16
-6.997753,-5.022758,-0.7390801,0.0
-6.941391,-5.018737,-0.73407775,0.0
-6.9610066,-5.0657487,-0.7380595,0.0
-6.983614,-5.114763,-0.7430406,0.0
-7.009214,-5.165777,-0.74802107,0.0
-6.9948473,-5.1907744,-0.74800974,0.09
-6.990478,-5.2227764,-0.7499962,0.13
-7.010774,-5.253787,-0.7529847,0.34
-6.994394,-5.276783,-0.7529741,0.33
-7.0060086,-5.3197923,-0.75695705,0.27
-6.990631,-5.3437896,-0.7569462,0.23
-6.988261,-5.3777924,-0.75893205,0.19
-6.9918647,-5.414797,-0.76091707,0.29
-6.9894896,-5.4488,-0.76290303,0.2
-6.9978,-5.472805,-0.76489365,0.18
-6.9874206,-5.5008044,-0.7658816,0.12
-6.993039,-5.5408106,-0.7688656,0.17
-6.9906545,-5.5748134,-0.7708516,0.28
-6.9932714,-5.612818,-0.7728363,0.18
-6.9948974,-5.6508226,-0.775821,0.17
-6.993509,-5.685826,-0.77780676,0.17
-6.9958167,-5.7058287,-0.77879876,0.16
-6.9864454,-5.735828,-0.7797861,0.09
-6.9880614,-5.773833,-0.7827709,0.14
-6.9876842,-5.8108363,-0.78475595,0.09
-6.9862843,-5.8458395,-0.78674185,0.09
-6.981921,-5.8808413,-0.7887276,0.09
-7.003522,-5.934854,-0.79370695,0.14
-7.01483,-5.962861,-0.7966963,0.23
-7.0234475,-6.0078692,-0.80067873,0.24
-7.039064,-6.058879,-0.80465907,0.26
-7.0466695,-6.102886,-0.8086419,0.27
-7.057294,-6.1508946,-0.8126232,0.2
-7.086899,-6.2139106,-0.81859946,0.21
-7.1105123,-6.272925,-0.82457703,0.18
-7.1577916,-6.330947,-0.832556,0.41
-7.2043977,-6.4099703,-0.8415266,0.16
-9.870046,-8.675098,-1.2047381,0.32
-9.777688,-8.652063,-1.1967425,0.27
-9.900255,-8.810118,-1.216684,0.0
-9.306088,-8.36087,-1.1388373,0.11
-9.390363,-8.458908,-1.1528015,0.25
-9.338003,-8.467889,-1.1487952,0.23
-9.42058,-8.591927,-1.1637487,0.27
-9.426193,-8.650932,-1.1677248,0.31
-9.370828,-8.656912,-1.1637198,0.38
-9.2934675,-8.642882,-1.1567218,0.39
-9.011185,-8.446768,-1.1217885,0.26
-9.200426,-8.641848,-1.1497182,0.18
-9.207048,-8.702855,-1.1546938,0.51
-5.52113,-5.4373174,-0.64185256,0.21
-9.210262,-8.813862,-1.1626493,0.15
-5.3774376,-5.374266,-0.6258742,0.39
-5.293078,-5.329235,-0.61589,0.45
-5.2897005,-5.3592386,-0.61787903,0.26
-5.2870283,-5.37424,-0.6188736,0.55
-5.496543,-5.6023316,-0.65079147,0.0
-3.9219108,-4.158683,-0.42831075,0.0
-3.9285326,-4.19069,-0.43129984,0.0
-3.8861873,-4.176678,-0.42730555,0.0
-2.8286238,-4.255509,-0.3573457,0.0
-2.8043013,-4.2525053,-0.3553491,0.0
-2.816905,-4.2955155,-0.35933495,0.0
-2.7955384,-4.294513,-0.35833746,0.0
-2.785155,-4.3075147,-0.35833466,0.0
-2.8444376,-4.4005413,-0.3703006,0.0
-3.723304,-5.709914,-0.5338126,0.0
-3.6555912,-5.6908984,-0.52782404,0.0
-2.7419586,-4.80461,-0.39719063,0.0
-2.685652,-5.425713,-0.44900984,0.0
-0.8264903,-8.649943,-0.706327,0.0
-0.80311567,-8.676944,-0.70932287,0.0
-0.18651435,-4.1936297,-0.237939,0.0
-0.621269,-8.627933,-0.70137703,0.0
-0.5948912,-8.626932,-0.70138294,0.0
-0.5645456,-8.597929,-0.69739914,0.0
-0.54316676,-8.649932,-0.7033863,0.0
-0.14215972,-4.9517035,-0.31570894,0.0
-0.46977645,-8.584926,-0.69542366,0.15
-0.44240898,-8.573924,-0.6944333,0.32
-0.4160471,-8.577924,-0.6944376,0.35
-0.3896798,-8.578923,-0.694443,0.3
-0.36331773,-8.582923,-0.6944474,0.36
-0.33694896,-8.582923,-0.6944531,0.31
-0.31058052,-8.582922,-0.6944589,0.32
-0.296895,-8.57392,-0.69246495,0.33
-0.2705388,-8.581921,-0.69346803,0.35
-0.24417384,-8.58392,-0.6934731,0.35
-0.21779631,-8.57592,-0.69248164,0.3
-0.19143908,-8.58392,-0.6934848,0.36
-0.16507101,-8.582919,-0.69249094,0.3
-0.15139179,-8.575919,-0.69249636,0.35
-0.1250248,-8.574918,-0.6915025,0.34
-0.09964659,-8.586918,-0.6925041,0.34
-0.07229248,-8.573916,-0.6915146,0.35
-0.0459295,-8.576917,-0.6915195,0.35
-0.020546904,-8.5859165,-0.69252217,0.31
0.006799258,-8.579917,-0.6915303,0.28
0.023462024,-8.474912,-0.6805698,0.24
0.049825322,-8.463911,-0.67957956,0.31
0.07716565,-8.44691,-0.67759156,0.35
0.10254079,-8.456911,-0.678594,0.48
0.12692977,-8.503913,-0.6835835,0.31
0.15132059,-8.571916,-0.69056576,0.35
0.17768474,-8.571916,-0.6905718,0.29
0.19135386,-8.581916,-0.6915715,0.36
0.2177189,-8.574916,-0.6905799,0.29
0.24408312,-8.574916,-0.6905859,0.36
0.2704473,-8.574916,-0.690592,0.34
0.2968108,-8.570916,-0.69059944,0.29
0.32317492,-8.571916,-0.69060516,0.36
0.33587068,-8.578916,-0.6916056,0.29
0.36223364,-8.574916,-0.69061315,0.35
0.38859528,-8.568915,-0.6906213,0.29
0.41496205,-8.574916,-0.6906253,0.35
0.44131708,-8.558916,-0.689637,0.3
0.46768475,-8.565917,-0.6896407,0.32
0.49405575,-8.575917,-0.69064337,0.37
0.50673836,-8.560917,-0.68965155,0.29
0.5331052,-8.564917,-0.6896563,0.39
0.5594719,-8.567918,-0.69066143,0.26
0.58582336,-8.554917,-0.6896722,0.33
0.6122026,-8.569919,-0.6906731,0.35
0.6375761,-8.556919,-0.6896836,0.29
0.6639411,-8.557919,-0.68968946,0.35
0.67761886,-8.56392,-0.6906906,0.34
0.7039835,-8.56392,-0.6906968,0.34
0.7303469,-8.562921,-0.6907034,0.34
0.75672495,-8.571921,-0.6917064,0.36
0.7830816,-8.565922,-0.69171476,0.36
0.8094584,-8.572923,-0.6917186,0.35
0.8358113,-8.564922,-0.69172764,0.34
0.8485009,-8.561923,-0.6917317,0.34
0.87584686,-8.563924,-0.69173753,0.34
0.90222806,-8.571924,-0.69274104,0.34
0.9285778,-8.562925,-0.6917504,0.34
0.9549567,-8.568926,-0.6927546,0.34
0.9813306,-8.571927,-0.69375986,0.38
0.9949964,-8.568927,-0.6927642,0.33
1.02136,-8.566928,-0.6927712,0.34
1.0477419,-8.572929,-0.69377536,0.34
