X,Y,Z,Intensity
5.427416,-5.83014,-0.91715795,0.12
5.526982,-5.9031277,-0.93415177,0.12
5.5315247,-5.8711286,-0.93113637,0.5
5.5002937,-5.8191333,-0.923126,0.25
5.48983,-5.7711363,-0.9171096,0.27
5.496387,-5.743137,-0.9150956,0.23
5.3908997,-5.5941525,-0.8890725,0.32
5.384451,-5.5531545,-0.88405824,0.28
5.414006,-5.550152,-0.8870467,0.32
5.399543,-5.500155,-0.88003194,0.3
5.3653064,-5.44716,-0.87202305,0.3
5.373852,-5.4221597,-0.87001044,0.21
5.3624005,-5.3771625,-0.8639971,0.42
5.3959527,-5.3781586,-0.8679863,0.17
5.4164944,-5.3651567,-0.8689747,0.4
5.42905,-5.345156,-0.86796325,0.36
5.416819,-5.3161583,-0.8639566,0.3
5.4493623,-5.3151555,-0.86694574,0.31
5.481921,-5.3151526,-0.8699354,0.3
5.50348,-5.3041506,-0.8709247,0.3
5.540018,-5.306147,-0.874914,0.29
5.5785747,-5.311143,-0.87990385,0.29
5.6071424,-5.307141,-0.88189375,0.29
5.6359024,-5.3171372,-0.8858884,0.29
5.6714654,-5.3191338,-0.8898783,0.21
5.632,-5.24814,-0.8788664,0.18
5.961601,-5.528101,-0.93986106,0.0
5.8921328,-5.42811,-0.9238487,0.0
5.931694,-5.432107,-0.9278383,0.11
5.958245,-5.423105,-0.92982763,0.22
5.9660287,-5.4141045,-0.9298225,0.25
5.9955716,-5.4071016,-0.9328118,0.31
6.024129,-5.4000998,-0.93480146,0.29
6.0526743,-5.3920975,-0.936791,0.3
6.045224,-5.352099,-0.93278086,0.32
6.098768,-5.366094,-0.9397703,0.27
6.1123214,-5.3450933,-0.9387604,0.31
6.101089,-5.318095,-0.9347555,0.31
6.1586475,-5.3360896,-0.94274527,0.26
6.194201,-5.334087,-0.94673526,0.23
6.195748,-5.302088,-0.9437258,0.34
6.2433,-5.3100834,-0.9497157,0.29
6.3128605,-5.3370767,-0.9597052,0.32
6.3346376,-5.3390746,-0.96270007,0.29
6.3581924,-5.326073,-0.9636906,0.25
6.3897395,-5.3190703,-0.96668077,0.37
6.4232793,-5.3130684,-0.9696709,0.3
6.5118546,-5.35506,-0.9826598,0.29
6.5574055,-5.359056,-0.9886496,0.23
6.582951,-5.3460546,-0.9896402,0.3
6.6307244,-5.3680496,-0.9976341,0.36
6.6502724,-5.350049,-0.997625,0.25
6.687828,-5.3470464,-1.0016154,0.24
6.707379,-5.329045,-1.0026065,0.45
6.7129316,-5.3000455,-1.0005985,0.28
6.775482,-5.3160405,-1.008588,0.3
6.7730265,-5.2800417,-1.0055804,0.37
6.774806,-5.265042,-1.0045768,0.21
6.86537,-5.303034,-1.017565,0.34
6.9049215,-5.300031,-1.0215555,0.28
6.924468,-5.28103,-1.0225474,0.31
6.976023,-5.2870264,-1.0285375,0.2
6.9955726,-5.2680254,-1.0295296,0.46
7.0603476,-5.3000197,-1.0395222,0.19
6.7923956,-5.0290465,-0.9865259,0.58
6.723931,-4.9450545,-0.97152454,0.11
6.7144923,-4.907056,-0.9675198,0.29
6.7040315,-4.867058,-0.9625151,0.22
6.864596,-4.9530435,-0.98849875,0.74
6.8973756,-4.961041,-0.9924938,0.0
6.68389,-4.7730613,-0.95250404,0.0
6.731456,-4.7770576,-0.958496,0.0
7.8042026,-4.9029813,-1.0953354,0.0
7.8037496,-4.8689823,-1.0923328,0.0
7.8002925,-4.832984,-1.0893307,0.0
7.8118443,-4.8069835,-1.0893273,0.0
7.8283944,-4.783983,-1.0893236,0.0
7.8181667,-4.7609844,-1.0863237,0.0
8.709319,-5.073924,-1.2172202,0.23
9.0539,-5.2398996,-1.271182,0.17
9.111453,-5.235897,-1.2781743,0.42
10.748149,-6.1447797,-1.5429956,0.21
9.506587,-5.3878713,-1.3381288,0.33
9.58214,-5.391868,-1.3471192,0.24
9.62291,-5.394866,-1.3521142,0.21
9.734471,-5.4188595,-1.3681009,0.26
10.782111,-5.965788,-1.5349834,0.18
9.827577,-5.3918567,-1.378089,0.15
9.898128,-5.390853,-1.3860805,0.16
10.226703,-5.5308323,-1.437043,0.15
10.124238,-5.433841,-1.4170543,0.23
10.113014,-5.407843,-1.4140555,0.23
10.197568,-5.4128394,-1.4250458,0.12
10.839163,-5.713798,-1.5259722,0.34
10.524677,-5.5038214,-1.4720086,0.15
10.388217,-5.3908315,-1.4480249,0.2
10.480767,-5.3978276,-1.4600147,0.32
10.551328,-5.393825,-1.4690073,0.16
10.591106,-5.393823,-1.4740031,0.21
10.678658,-5.3968196,-1.4849939,0.29
10.82522,-5.429812,-1.505978,0.2
10.8477545,-5.397813,-1.5069767,0.21
10.825302,-5.344816,-1.499981,0.37
10.835857,-5.3088174,-1.4999815,0.21
10.814395,-5.2558208,-1.4939862,0.24
10.807171,-5.2318225,-1.4909881,0.18
10.799719,-5.1868243,-1.4879913,0.34
10.851264,-5.1698236,-1.4929878,0.18
10.902812,-5.152822,-1.4989843,0.38
10.98937,-5.152819,-1.5099766,0.2
11.010914,-5.1208196,-1.5109773,0.27
10.978696,-5.0858226,-1.5049826,0.17
10.987238,-5.047824,-1.502985,0.51
11.08179,-5.049821,-1.5159771,0.19
11.223346,-5.0728145,-1.5349637,0.3
11.263892,-5.048814,-1.5389628,0.22
11.261441,-5.005816,-1.5369673,0.38
11.301989,-4.981816,-1.5399667,0.2
11.314768,-4.9668164,-1.5409672,0.36
11.331313,-4.9318175,-1.5419699,0.19
11.353863,-4.899818,-1.5429718,0.36
11.370408,-4.864819,-1.5429748,0.23
11.403962,-4.837819,-1.5459758,0.18
11.409505,-4.797821,-1.5439806,0.16
8.598841,-3.571971,-1.1103266,0.15
8.567609,-3.5429728,-1.1053332,0.25
8.540149,-3.4999747,-1.0993422,0.21
8.504703,-3.454977,-1.0923523,0.16
8.493241,-3.4189782,-1.0893596,0.0
8.484791,-3.3849792,-1.0863669,0.0
8.473339,-3.3499804,-1.0823743,0.0
8.4411125,-3.3219821,-1.0773814,0.0
8.42565,-3.2849836,-1.0733899,0.0
8.433202,-3.2579834,-1.0733955,0.0
8.43176,-3.2279842,-1.0714021,0.0
8.428299,-3.1959848,-1.0694095,0.0
8.417846,-3.1619856,-1.0664177,0.0
8.412392,-3.1299865,-1.0644255,0.0
8.421175,-3.1189861,-1.0644279,0.0
8.40772,-3.0839872,-1.0614368,0.0
8.40627,-3.0539877,-1.0594443,0.0
8.401821,-3.0229883,-1.0574523,0.0
8.400354,-2.9919891,-1.0554605,0.0
8.386906,-2.9579897,-1.0524697,0.07
8.402468,-2.9349895,-1.0534755,0.17
8.416241,-2.924989,-1.0554781,0.23
8.400783,-2.88999,-1.0514879,0.28
8.394338,-2.8589907,-1.0494969,0.27
8.3918705,-2.8279912,-1.0475059,0.31
8.396428,-2.8009913,-1.0475136,0.32
8.387973,-2.768992,-1.0445232,0.32
8.38275,-2.7529924,-1.0435281,0.31
8.398295,-2.728992,-1.0445353,0.32
8.394845,-2.6989923,-1.0425446,0.31
8.397392,-2.6709926,-1.0415533,0.3
8.402943,-2.6439927,-1.0415618,0.29
8.401493,-2.6149929,-1.0405713,0.29
8.407042,-2.5879931,-1.0395801,0.3
8.403821,-2.5729933,-1.0385851,0.29
8.405372,-2.5449936,-1.0375946,0.3
8.410919,-2.5179935,-1.0376037,0.28
8.401456,-2.4859943,-1.0346148,0.29
8.413006,-2.460994,-1.0356234,0.29
8.410557,-2.4319942,-1.0346339,0.29
8.414111,-2.4049945,-1.0336435,0.29
8.409876,-2.3889947,-1.0326494,0.3
8.430433,-2.3669944,-1.0346574,0.32
8.427982,-2.3379946,-1.0336682,0.3
8.432531,-2.3109949,-1.0326784,0.3
8.453075,-2.2879944,-1.034687,0.32
8.455633,-2.2609942,-1.0346975,0.32
8.46818,-2.2359943,-1.0347073,0.32
8.487954,-2.2269936,-1.0377108,0.32
8.494512,-2.2009935,-1.0377212,0.32
8.518048,-2.177993,-1.0407305,0.31
8.5496025,-2.1579924,-1.0437386,0.31
8.581159,-2.1379914,-1.0477469,0.29
8.61071,-2.116991,-1.0507557,0.29
8.505466,-2.0759943,-1.0347724,0.0
9.141067,-2.2039752,-1.1267209,0.0
9.154614,-2.1769753,-1.127732,0.0
9.142164,-2.1439762,-1.124746,0.07
9.126707,-2.1099768,-1.1217604,0.14
9.067249,-2.065979,-1.112779,0.31
9.135804,-2.0519776,-1.1217854,0.0
9.30615,-2.0459735,-1.1447887,0.2
9.387697,-2.0329716,-1.1557947,0.11
9.481242,-2.0219698,-1.1688001,0.18
9.569811,-2.0109677,-1.1808056,0.12
9.690365,-2.0049655,-1.1978087,0.16
9.771914,-1.989964,-1.207816,0.23
9.881684,-1.9959615,-1.2238138,0.17
10.007251,-1.989959,-1.2408171,0.17
10.113811,-1.978957,-1.2558227,0.16
10.222358,-1.9669553,-1.2708287,0.1
10.372917,-1.9629526,-1.2908313,0.14
10.620252,-1.9589481,-1.3258344,0.36
10.771801,-1.9519457,-1.3468384,0.09
11.2899275,-1.9749362,-1.4198297,0.0
11.069464,-1.8999423,-1.3868645,0.0
11.204014,-1.8869405,-1.4058715,0.0
11.312576,-1.8699394,-1.4208803,0.11
12.733405,-2.087911,-1.6237811,0.2
12.713954,-2.043913,-1.6208019,0.34
12.700501,-2.0009148,-1.6178225,0.18
12.69104,-1.9579169,-1.6158433,0.36
12.674589,-1.9149191,-1.6118643,0.21
12.647134,-1.8699213,-1.6078864,0.34
12.636682,-1.8279233,-1.6049073,0.21
12.606462,-1.8039247,-1.6009192,0.33
12.600011,-1.7629266,-1.5989399,0.18
12.584551,-1.7199286,-1.5959618,0.35
12.568103,-1.6779305,-1.5929832,0.18
12.541645,-1.6339326,-1.5890061,0.35
12.534192,-1.5929345,-1.5870275,0.18
12.491742,-1.5479368,-1.580051,0.37
12.486522,-1.5279377,-1.5790616,0.19
12.4750595,-1.4859395,-1.577084,0.38
12.472618,-1.4469411,-1.576105,0.17
12.439159,-1.4029433,-1.5711287,0.35
12.455703,-1.3649447,-1.5721496,0.19
12.433262,-1.3239466,-1.5691723,0.34
12.423034,-1.3029475,-1.5671839,0.2
12.413574,-1.2619493,-1.5652068,0.25
12.401129,-1.221951,-1.5632292,0.18
12.376672,-1.1799529,-1.5592529,0.24
12.358218,-1.1389548,-1.5562763,0.21
12.364773,-1.1009562,-1.5562983,0.23
12.360313,-1.0609578,-1.5553215,0.19
12.354089,-1.0409586,-1.5543331,0.22
12.328639,-0.9999605,-1.5503571,0.2
12.339188,-0.961962,-1.5513797,0.17
12.345741,-0.9239634,-1.5524024,0.39
12.332288,-0.8839651,-1.5504262,0.18
12.338831,-0.84496665,-1.55045,0.38
12.361616,-0.82796717,-1.5534604,0.19
12.336159,-0.78696895,-1.5494852,0.34
12.323703,-0.74697053,-1.5475098,0.18
12.3182535,-0.70797217,-1.546534,0.37
12.323807,-0.6699736,-1.5475576,0.23
12.347351,-0.63197505,-1.5505816,0.24
12.334905,-0.59297657,-1.5486062,0.23
12.335671,-0.5729774,-1.5486189,0.2
12.325223,-0.53397894,-1.5466437,0.23
12.323769,-0.4949805,-1.5466688,0.2
12.317318,-0.45598206,-1.5456939,0.22
12.311865,-0.4169836,-1.5447192,0.19
12.301414,-0.37798518,-1.5427446,0.21
12.305968,-0.33998665,-1.5437697,0.18
12.283742,-0.31998748,-1.5407828,0.34
12.284286,-0.280989,-1.5408088,0.19
12.278843,-0.24299051,-1.5398341,0.24
12.275387,-0.20399204,-1.5388604,0.2
12.267932,-0.16499358,-1.5378867,0.22
12.259488,-0.12699506,-1.5369124,0.18
12.263253,-0.106995836,-1.5379262,0.21
12.255809,-0.068997316,-1.5369523,0.18
12.257352,-0.029998831,-1.5369791,0.23
11.902746,0.020999178,-1.5410147,0.31
11.910289,0.058997687,-1.5420414,0.3
11.907843,0.095996246,-1.5410676,0.3
11.9063835,0.13399476,-1.5410945,0.3
11.902166,0.15199405,-1.5411074,0.32
11.916711,0.18999255,-1.5431346,0.32
11.886258,0.22699113,-1.5391614,0.29
11.908806,0.2649896,-1.5421889,0.35
11.919364,0.30198812,-1.5442157,0.31
11.925909,0.33998662,-1.5452434,0.32
11.930682,0.35898587,-1.5462574,0.31
11.937228,0.39698437,-1.5472854,0.3
11.949777,0.4349828,-1.5493134,0.3
11.961327,0.47298124,-1.5513417,0.3
11.964873,0.5109797,-1.5523701,0.29
11.981428,0.54897815,-1.5553983,0.31
11.980974,0.58697665,-1.5554271,0.32
12.001747,0.60697573,-1.5584421,0.3
12.001294,0.6449742,-1.558471,0.29
12.003843,0.68297267,-1.5595,0.31
12.01939,0.721971,-1.5625298,0.3
12.00494,0.7589696,-1.5605583,0.3
12.009492,0.79696804,-1.5615878,0.29
12.018035,0.8359664,-1.563618,0.31
12.028818,0.85496557,-1.5656328,0.3
12.0333605,0.89396393,-1.5666631,0.32
12.033911,0.9319623,-1.5676931,0.35
12.042458,0.97096074,-1.5687237,0.32
12.033011,1.0079594,-1.5677533,0.29
12.058553,1.0489575,-1.5727855,0.3
12.055337,1.0669568,-1.5718,0.31
12.06888,1.1069549,-1.5748318,0.3
12.074428,1.1459533,-1.576863,0.34
12.066984,1.1829518,-1.5758932,0.3
12.072532,1.2219502,-1.5769247,0.3
12.090072,1.2629483,-1.5809579,0.34
12.085621,1.3009467,-1.580989,0.31
12.092396,1.3209459,-1.5820053,0.32
12.107947,1.3609439,-1.5850378,0.31
12.108494,1.3999423,-1.5860702,0.32
12.120043,1.4399406,-1.588103,0.36
12.116595,1.477939,-1.5881348,0.29
12.129137,1.5189371,-1.5911688,0.3
12.145684,1.5599351,-1.5942028,0.35
12.158461,1.5809342,-1.5962201,0.29
12.169014,1.6209323,-1.5992537,0.35
12.18856,1.6629303,-1.6032887,0.33
12.202109,1.7039284,-1.6053231,0.3
12.212654,1.7449265,-1.6083578,0.28
12.210203,1.7839248,-1.6083912,0.29
12.217757,1.823923,-1.6104254,0.33
12.2365265,1.8469216,-1.6144446,0.32
12.241076,1.8869199,-1.615479,0.3
12.252629,1.9279178,-1.6185142,0.32
12.250181,1.9669162,-1.6185482,0.3
12.260723,2.0089142,-1.6215845,0.33
12.269274,2.0499122,-1.62362,0.36
12.286045,2.072911,-1.6266397,0.32
12.290601,2.112909,-1.6286746,0.32
12.3101425,2.1569068,-1.6327128,0.33
12.303691,2.1959052,-1.6327477,0.3
12.323246,2.238903,-1.636785,0.34
12.303791,2.2759016,-1.6348189,0.27
12.325342,2.319899,-1.6398574,0.4
12.312112,2.3378987,-1.6378741,0.26
12.334658,2.382896,-1.6429136,0.38
12.333207,2.4228945,-1.6439497,0.32
12.336758,2.4638925,-1.6449867,0.29
12.341311,2.5048907,-1.6470237,0.33
12.336857,2.5448887,-1.6480603,0.3
12.359632,2.569887,-1.6520821,0.35
12.355178,2.6098852,-1.6531188,0.3
12.361729,2.6518831,-1.6551571,0.32
12.36328,2.6928813,-1.6561948,0.33
12.399828,2.7418785,-1.663238,0.31
12.422379,2.787876,-1.6682795,0.32
12.441923,2.8338733,-1.6723211,0.31
12.459694,2.8588715,-1.6763434,0.26
12.489246,2.9068687,-1.6823864,0.32
12.481794,2.946867,-1.6824242,0.32
12.456338,2.9828656,-1.6804594,0.37
12.472883,3.0288632,-1.6845018,0.36
12.446436,3.0638618,-1.6815363,0.52
12.418995,3.0978608,-1.6785702,0.51
12.242769,3.0748653,-1.6535591,0.3
12.067328,3.0708692,-1.6285664,0.28
11.915888,3.0718725,-1.6065769,0.23
11.876437,3.1018717,-1.6026083,0.39
11.837987,3.1318712,-1.5986397,0.2
11.833535,3.1708696,-1.5996777,0.35
11.790089,3.198869,-1.5947078,0.36
11.780858,3.2168686,-1.5937259,0.32
11.755407,3.2498677,-1.5917598,0.35
11.761955,3.2918658,-1.5938003,0.43
11.737509,3.3248649,-1.5918344,0.35
11.727059,3.3618634,-1.5918714,0.34
11.70961,3.396862,-1.5919071,0.33
11.691382,3.4118617,-1.5899233,0.3
11.694934,3.4528599,-1.5919635,0.38
11.672478,3.4868588,-1.5899988,0.37
11.64603,3.518858,-1.5880327,0.29
11.653586,3.5608559,-1.5910739,0.35
11.62813,3.5938551,-1.5891088,0.33
11.599685,3.6248543,-1.5861421,0.32
11.595458,3.6438537,-1.5861615,0.31
11.565005,3.6748528,-1.5831952,0.3
11.529554,3.7038524,-1.5802274,0.3
11.544103,3.74885,-1.5842714,0.37
11.501659,3.7748501,-1.5793015,0.31
11.480212,3.807849,-1.578337,0.32
11.459756,3.841848,-1.5773733,0.3
11.448536,3.8578475,-1.5763905,0.37
11.417083,3.887847,-1.5734241,0.34
11.388628,3.9188461,-1.5714583,0.34
11.363185,3.9498456,-1.5694925,0.33
11.342736,3.9828446,-1.5685284,0.3
11.318283,4.0148435,-1.5665636,0.29
11.303057,4.029844,-1.5645806,0.39
11.272611,4.058843,-1.5626135,0.36
11.278153,4.101841,-1.5656575,0.36
11.257714,4.13384,-1.5636926,0.33
11.229264,4.16384,-1.5617267,0.3
11.213811,4.198838,-1.5617647,0.29
11.183362,4.227838,-1.5587982,0.34
11.16513,4.241838,-1.5578148,0.37
11.152688,4.2768364,-1.5578527,0.27
11.124233,4.306836,-1.5558873,0.43
11.104783,4.339835,-1.5549241,0.41
11.10533,4.380833,-1.5569671,0.34
11.070881,4.407833,-1.5539994,0.32
11.036441,4.4338326,-1.551031,0.32
11.035214,4.453832,-1.5510522,0.34
11.005762,4.4828315,-1.5490863,0.38
10.987313,4.51583,-1.5491235,0.37
10.963864,4.5468297,-1.5471592,0.29
10.937412,4.5768294,-1.5451944,0.35
10.942962,4.619827,-1.5492395,0.39
10.918739,4.6298275,-1.5462533,0.31
10.891293,4.658827,-1.5442876,0.29
10.888839,4.698825,-1.5463309,0.42
10.870389,4.731824,-1.5453686,0.34
10.836945,4.757824,-1.5434008,0.33
10.81549,4.789823,-1.542438,0.31
10.789043,4.8188224,-1.5404727,0.3
10.779812,4.835822,-1.5404923,0.36
10.753365,4.8648214,-1.5385271,0.32
10.735916,4.8978205,-1.5385653,0.32
10.710462,4.92782,-1.5366012,0.45
10.657018,4.9438214,-1.5306258,0.38
10.671566,4.991819,-1.5356761,0.43
10.634113,5.0158186,-1.5327075,0.27
10.607891,5.0238194,-1.5297198,0.3
10.570448,5.0468197,-1.5257503,0.57
10.565988,5.0868177,-1.5277947,0.5
10.540538,5.1158175,-1.5268301,0.36
10.5310955,5.151816,-1.527871,0.34
10.491649,5.173816,-1.523901,0.32
10.48142,5.189816,-1.52392,0.34
10.4199705,5.200818,-1.5169411,0.38
10.394528,5.228818,-1.5149758,0.35
10.372067,5.259817,-1.5140134,0.49
10.39562,5.3128138,-1.5210687,0.37
10.366166,5.339813,-1.519103,0.34
10.345728,5.3698125,-1.5181395,0.36
10.3455,5.3908114,-1.5201628,0.4
10.311049,5.4148116,-1.5171949,0.39
10.252601,5.4258137,-1.5102162,0.39
10.160151,5.418818,-1.4982231,0.34
10.067716,5.409822,-1.4852277,0.39
10.000268,5.414825,-1.4772441,0.36
9.919815,5.4128284,-1.467255,0.32
9.851596,5.395832,-1.457247,0.36
9.774151,5.3938355,-1.4472575,0.37
9.716701,5.4028378,-1.4402772,0.33
9.628257,5.393842,-1.4282819,0.32
9.548817,5.388846,-1.4182898,0.34
9.478373,5.3888493,-1.4093019,0.34
9.435154,5.3838515,-1.4033036,0.48
9.07973,5.219876,-1.3461791,0.22
9.013286,5.2198787,-1.3381909,0.37
8.998823,5.2508783,-1.338229,0.36
8.984385,5.279878,-1.3392649,0.26
9.063922,5.3658705,-1.355349,0.38
8.977484,5.352875,-1.3433498,0.43
8.921261,5.3388786,-1.3353441,0.45
8.867808,5.345881,-1.3293619,0.37
8.8183565,5.3548827,-1.3243815,0.38
8.761911,5.358886,-1.3173968,0.38
8.701468,5.359889,-1.3094094,0.29
8.62302,5.349893,-1.2994127,0.43
8.607577,5.377893,-1.2994481,0.45
8.610348,5.3988924,-1.3014718,0.33
8.617897,5.4418893,-1.3065202,0.42
8.590448,5.46289,-1.3045499,0.56
8.546003,5.4728923,-1.2995703,0.29
8.485553,5.4728956,-1.2925822,0.42
8.43611,5.478898,-1.286599,0.39
8.385895,5.4649014,-1.2795929,0.41
8.323441,5.462905,-1.2716031,0.36
8.275991,5.469907,-1.2666209,0.45
8.225551,5.47391,-1.2606359,0.37
8.175107,5.477913,-1.254651,0.38
8.119656,5.4789157,-1.2486637,0.37
8.087216,5.493917,-1.245688,0.46
7.9569964,5.4249277,-1.2246344,0.0
7.8511014,5.426934,-1.2116593,0.0
7.961729,5.616919,-1.2418592,0.32
7.839297,5.5679283,-1.222828,0.0
7.950609,5.703916,-1.247964,0.23
7.942164,5.735915,-1.2490036,0.25
7.884719,5.7329187,-1.2420126,0.18
7.9352655,5.8079123,-1.2550899,0.12
7.9518137,5.858909,-1.2611464,0.32
7.953586,5.879908,-1.2631707,0.28
7.9581304,5.9229054,-1.2682204,0.21
7.9546785,5.959904,-1.270265,0.29
7.951229,5.996903,-1.2733092,0.29
7.9387836,6.0269017,-1.2753475,0.26
7.870338,6.0149064,-1.2663487,0.18
7.94965,6.1358957,-1.2864736,0.38
7.934195,6.1648955,-1.2865114,0.17
7.9517446,6.2188916,-1.2935711,0.31
7.9602995,6.265888,-1.2996247,0.38
7.9538383,6.3028874,-1.3016697,0.23
7.9294,6.323888,-1.3007003,0.19
7.9081745,6.327889,-1.2987099,0.18
7.950267,6.4448805,-1.3148383,0.27
7.961808,6.4968767,-1.320897,0.34
7.957354,6.535875,-1.3239441,0.14
7.9479113,6.569874,-1.3259864,0.24
7.912457,6.583875,-1.3240113,0.17
7.9737782,6.698865,-1.3411326,0.27
7.9383264,6.7128663,-1.3391576,0.34
7.9708714,6.78386,-1.3492336,0.16
7.9614296,6.818859,-1.3512772,0.21
7.9769697,6.876855,-1.3583419,0.32
7.9675317,6.911854,-1.3613855,0.12
7.9872966,6.95185,-1.367428,0.32
7.9878483,6.9968476,-1.371481,0.26
7.985386,7.040845,-1.3755335,0.31
7.9479403,7.0528464,-1.3725566,0.15
7.9904847,7.135839,-1.3856442,0.33
7.967045,7.1598387,-1.3856782,0.21
7.9865856,7.223834,-1.3937489,0.35
7.977359,7.2388334,-1.3947687,0.22
7.9989147,7.3038282,-1.4028401,0.36
8.011454,7.362824,-1.4109066,0.34
7.9890003,7.3898234,-1.4109439,0.16
7.9695535,7.4188232,-1.4119828,0.23
7.9771047,7.4728193,-1.4180444,0.33
7.961658,7.505818,-1.420087,0.18
7.9564238,7.5258174,-1.4211118,0.2
7.9899745,7.6048098,-1.4331965,0.35
7.978522,7.6428084,-1.4352441,0.19
7.9150686,7.631813,-1.4272467,0.18
7.8726287,7.638815,-1.4242653,0.16
7.981943,7.8177967,-1.453449,0.33
7.973488,7.8597946,-1.4575003,0.39
7.968035,7.904792,-1.4615545,0.29
7.9575934,7.9437895,-1.4646028,0.39
7.9571347,7.9947863,-1.4696628,0.46
7.9606776,8.049783,-1.4757265,0.37
7.9442253,8.084782,-1.4777715,0.41
7.9600034,8.125778,-1.4838158,0.39
7.952545,8.170774,-1.4878703,0.4
7.925095,8.194775,-1.4879053,0.46
7.9476542,8.268768,-1.4979863,0.37
7.9282007,8.301767,-1.4990298,0.5
7.940738,8.368762,-1.508105,0.47
7.9432955,8.423758,-1.5141687,0.4
7.9610634,8.469754,-1.5202183,0.36
7.9496117,8.511751,-1.52427,0.36
7.913167,8.526752,-1.5222967,0.43
7.874713,8.540754,-1.5193225,0.5
7.849272,8.566753,-1.5203593,0.52
7.8108153,8.580755,-1.5173851,0.54
4.884975,5.417167,-0.8854185,0.23
4.838516,5.4021726,-0.87941444,0.29
4.8030796,5.3971763,-0.87541926,0.21
4.794635,5.422176,-0.8774524,0.32
4.760195,5.41818,-0.87345815,0.34
4.7307463,5.420183,-0.87046975,0.28
4.7043,5.4251857,-0.868484,0.34
4.673067,5.40819,-0.86347306,0.32
4.6396174,5.4051933,-0.86047983,0.31
4.6151814,5.4111953,-0.8584948,0.32
4.59172,5.4201975,-0.8575132,0.37
4.5802937,5.440198,-0.85854113,0.34
4.5478253,5.4392014,-0.8555501,0.29
4.501389,5.4192076,-0.8485405,0.25
4.499176,5.433207,-0.8505582,0.36
4.477726,5.4432087,-0.8495772,0.3
4.471272,5.471208,-0.85261333,0.29
4.4788165,5.516206,-0.85766566,0.25
4.4663653,5.537206,-0.8596951,0.23
4.4319215,5.53121,-0.8556987,0.0
4.4354634,5.572208,-0.86074734,0.0
4.460786,5.658201,-0.8728435,0.27
4.468328,5.7051983,-0.87889796,0.0
4.4818807,5.759195,-0.88595897,0.11
4.5764074,5.917177,-0.9131199,0.22
4.5279675,5.8941836,-0.90610725,0.26
4.3423185,5.714212,-0.8689486,0.51
4.2914205,5.724217,-0.86497676,0.35
4.3359537,5.821207,-0.8810795,0.35
4.526472,6.1111727,-0.93136805,0.14
4.3810506,5.9581957,-0.90122986,0.0
4.497351,6.174172,-0.93645227,0.12
4.5044417,6.2671666,-0.9485609,0.0
4.301574,6.0721984,-0.9073909,0.19
4.260135,6.0552034,-0.9023835,0.19
4.173919,5.956218,-0.8832923,0.19
7.6329513,10.84558,-1.7630409,0.14
4.1770196,6.041213,-0.8933928,0.12
4.1215596,6.0052214,-0.8843672,0.0
4.112673,6.0732183,-0.892451,0.36
3.9302495,5.8512506,-0.85024416,0.18
3.9240246,5.862251,-0.8512593,0.24
3.9215703,5.8992496,-0.8553041,0.43
3.9241228,5.943247,-0.8603557,0.33
3.856696,5.8832574,-0.84830576,0.29
3.8087895,5.894263,-0.8453341,0.45
3.7913368,5.9092636,-0.84635746,0.0
4.0416164,6.3532104,-0.92080426,0.29
3.7367723,5.9702663,-0.84944713,0.46
3.6453443,5.869283,-0.82935673,0.41
3.7188773,6.0262656,-0.85451895,0.17
3.530461,5.771302,-0.80827755,0.18
3.652738,6.030273,-0.8505445,0.24
3.5253232,5.8672976,-0.8203927,0.18
3.6203966,6.107272,-0.8576453,0.37
3.5589576,6.050283,-0.84559757,0.27
3.5295122,6.045287,-0.8426009,0.2
3.5222862,6.055287,-0.84361494,0.46
3.4608498,5.996298,-0.831565,0.27
3.4773903,6.0682917,-0.8416442,0.36
3.5659058,6.2642684,-0.8738458,0.24
3.4464974,6.104293,-0.844696,0.0
7.079395,12.417463,-1.9149333,0.0
6.989724,12.39847,-1.9059312,0.0
7.0533524,12.789427,-1.9603508,0.16
6.9969015,12.7844305,-1.955357,0.0
4.7828035,8.87395,-1.2954981,0.0
7.0182204,12.966412,-1.9805534,0.0
6.9227753,12.890424,-1.9644893,0.0
6.94732,13.032408,-1.9846407,0.0
6.9258604,13.093403,-1.990712,0.0
6.877418,13.101405,-1.9887307,0.0
6.874967,13.196395,-2.0008354,0.0
6.8248267,13.35838,-2.019023,0.0
6.8169165,13.5523615,-2.0432367,0.0
6.795465,13.616355,-2.0503109,0.0
2.8313475,5.913382,-0.77766585,0.32
2.8151176,5.9053845,-0.7756617,0.0
2.7057126,5.7304106,-0.7454944,0.0
2.6912541,5.7484117,-0.74651974,0.0
2.6458206,5.7014213,-0.73748,0.0
2.458381,5.5644565,-0.7073819,0.0
2.404491,5.5414653,-0.7013727,0.0
2.4270372,5.637456,-0.7154753,0.0
2.4445508,5.727447,-0.7285725,0.0
2.4223511,5.700452,-0.7235486,0.0
4.6533194,10.764781,-1.5376201,0.06
4.608863,10.758785,-1.5336225,0.08
4.562412,10.746789,-1.5296186,0.13
4.5239735,10.749792,-1.5276295,0.14
2.2758853,5.6404767,-0.70752543,0.3
2.372403,5.9174433,-0.74980944,0.35
2.3509479,5.920446,-0.7498191,0.25
2.3445046,5.9574437,-0.7538626,0.43
2.31205,5.9344506,-0.74884623,0.16
4.2550654,10.731813,-1.5096618,0.3
4.215617,10.732816,-1.5076703,0.32
4.193384,10.728818,-1.5066701,0.32
4.1569448,10.734819,-1.5056834,0.36
4.115494,10.730823,-1.5026867,0.32
4.075044,10.7288265,-1.499692,0.32
4.041595,10.743827,-1.5007142,0.37
4.0011477,10.74083,-1.4977182,0.32
3.963693,10.746832,-1.4967314,0.34
3.9444773,10.745834,-1.4957337,0.37
3.9020255,10.737838,-1.4927326,0.32
3.8635838,10.73784,-1.4907395,0.32
3.828136,10.746842,-1.4897552,0.35
3.7856896,10.736847,-1.4857519,0.3
3.7582388,10.767845,-1.4887896,0.35
3.7097833,10.742851,-1.4837711,0.31
3.698556,10.765849,-1.4857975,0.39
3.6601133,10.764853,-1.4838028,0.27
1.8592538,5.7325306,-0.69775045,0.18
1.8437958,5.748532,-0.69977236,0.48
1.8343407,5.7815304,-0.7038113,0.22
1.8109183,5.770535,-0.70080566,0.26
1.7844642,5.75454,-0.6977953,0.16
1.782245,5.7775383,-0.7008211,0.48
3.4202042,10.789867,-1.4758679,0.2
3.3747478,10.769874,-1.4708536,0.16
1.7208818,5.781547,-0.69884187,0.23
1.6984352,5.775551,-0.6968413,0.36
1.6890014,5.8075495,-0.7008787,0.26
1.7015183,5.915538,-0.7169929,0.19
1.663309,5.826552,-0.701906,0.5
1.6428626,5.8265543,-0.7019113,0.22
1.6094191,5.7845635,-0.6938743,0.32
3.0823963,10.734898,-1.4538597,0.16
1.5615307,5.759572,-0.68885946,0.31
3.0084949,10.737904,-1.450873,0.23
1.6103653,6.100534,-0.73921525,0.2
2.9750469,10.749905,-1.4518901,0.49
1.5649271,6.016548,-0.7251358,0.15
1.6314265,6.32651,-0.7714527,0.0
1.5660162,6.1685343,-0.7462985,0.1
1.5495452,6.189534,-0.74932474,0.3
1.4891242,6.0455565,-0.7261846,0.27
2.734137,10.744924,-1.4409157,0.35
2.7169023,10.751924,-1.441925,0.11
2.681465,10.752926,-1.4409302,0.14
2.6420143,10.742929,-1.4379245,0.23
2.6055565,10.745933,-1.4369318,0.3
2.5721097,10.756934,-1.4369471,0.4
2.526665,10.720942,-1.429915,0.18
2.5154366,10.748939,-1.4339451,0.33
2.478993,10.746942,-1.4319469,0.14
2.439542,10.734946,-1.4289386,0.17
2.4060957,10.744947,-1.4299525,0.43
1.2572025,6.0265923,-0.71521544,0.18
2.331199,10.733955,-1.4249486,0.23
2.3007452,10.758953,-1.4279772,0.36
2.2602968,10.739959,-1.4239615,0.31
2.2430823,10.739961,-1.422963,0.33
2.2076325,10.7419615,-1.4229684,0.33
2.1691797,10.731967,-1.4199615,0.3
2.135735,10.740969,-1.4199736,0.36
2.1012888,10.745971,-1.4199816,0.35
2.0618308,10.731975,-1.4169706,0.26
2.0456054,10.739975,-1.41698,0.36
2.0101616,10.738978,-1.4159818,0.34
1.9717104,10.725982,-1.4129714,0.32
1.9372619,10.730984,-1.412979,0.32
1.9018205,10.727986,-1.4119786,0.32
1.8673617,10.736989,-1.41199,0.32
1.8329147,10.740991,-1.4119964,0.36
1.8136955,10.730993,-1.4099873,0.32
1.7802467,10.740994,-1.4099996,0.32
1.7447908,10.742996,-1.4100037,0.36
1.7073447,10.7300005,-1.4069928,0.32
1.6728916,10.736003,-1.4070008,0.32
1.6384457,10.739006,-1.4060055,0.35
1.6019979,10.7310095,-1.4039992,0.29
1.585779,10.73601,-1.405005,0.32
1.5513344,10.738011,-1.4040086,0.18
0.7524634,5.8916802,-0.6821692,0.19
1.4814324,10.741016,-1.4030145,0.35
1.4479771,10.754017,-1.4040288,0.33
1.4125283,10.75102,-1.4030269,0.28
1.3750868,10.731026,-1.3990082,0.28
1.3558568,10.722029,-1.3969997,0.29
1.3224063,10.73203,-1.3980106,0.36
1.2869583,10.727033,-1.3970065,0.31
1.2525121,10.728035,-1.3960084,0.32
1.2180649,10.729037,-1.39601,0.32
1.1836165,10.73104,-1.3950125,0.32
1.149164,10.735042,-1.395017,0.37
1.1319456,10.732043,-1.3950142,0.34
1.0974966,10.734046,-1.3940166,0.35
1.0630468,10.736048,-1.3940188,0.32
1.0186095,10.647063,-1.3799305,0.18
0.48071975,6.050703,-0.6993679,0.16
0.95969826,10.741055,-1.3930238,0.21
0.92425215,10.731058,-1.3910137,0.29
0.90802103,10.745058,-1.3930275,0.35
0.8725668,10.740061,-1.3920221,0.31
0.83912146,10.748063,-1.3920296,0.33
0.80467415,10.747065,-1.3920281,0.26
0.7692295,10.73407,-1.3890147,0.29
0.73477864,10.735071,-1.389015,0.34
0.71755373,10.735072,-1.3890146,0.34
0.68210155,10.726076,-1.3870047,0.31
0.6486502,10.739078,-1.3880166,0.36
0.61420655,10.733081,-1.3870095,0.33
0.57975936,10.730083,-1.3860054,0.33
0.54530203,10.736085,-1.38701,0.33
0.5108527,10.735087,-1.3860075,0.34
0.4936336,10.728089,-1.3849999,0.32
0.45917797,10.732092,-1.3860023,0.33
0.42573658,10.7360935,-1.3860046,0.32
0.39128986,10.730096,-1.3849969,0.32
0.3568386,10.730099,-1.3839949,0.34
0.32238635,10.730102,-1.3839929,0.32
0.2879322,10.733104,-1.3839937,0.34
0.27070874,10.728105,-1.3839878,0.34
0.23625693,10.728107,-1.3829854,0.3
0.20281515,10.73111,-1.383986,0.35
0.16836193,10.732112,-1.3839844,0.34
0.13391069,10.730114,-1.3829798,0.34
0.10046995,10.733116,-1.38298,0.34
0.06601518,10.736118,-1.3839802,0.34
0.048787612,10.740119,-1.3839825,0.34
0.014339107,10.729123,-1.3819686,0.3
-0.019105172,10.742124,-1.3839784,0.32
-0.053554453,10.730127,-1.3819633,0.32
-0.08800796,10.73113,-1.3819609,0.32
-0.12246377,10.741131,-1.3839672,0.37
-0.15590143,10.731134,-1.3819537,0.31
-0.17312998,10.743134,-1.3839636,0.36
-0.20758283,10.745136,-1.3839618,0.34
-0.24203569,10.734139,-1.3829471,0.31
-0.2754758,10.733141,-1.3829422,0.36
-0.3099289,10.729145,-1.381934,0.31
-0.3443821,10.739145,-1.3839395,0.35
-0.3778231,10.72315,-1.3809197,0.31
-0.39606068,10.746148,-1.3849396,0.34
-0.4295026,10.732152,-1.3829216,0.32
-0.46395475,10.735154,-1.3829197,0.33
-0.49739644,10.730156,-1.3829101,0.32
-0.5318483,10.733159,-1.3829081,0.32
-0.5663017,10.73416,-1.383904,0.36
-0.60075516,10.731164,-1.3828958,0.31
-0.6179798,10.736164,-1.383898,0.33
-0.65142083,10.733167,-1.3838898,0.32
-0.686882,10.742167,-1.3848927,0.33
-0.7203248,10.736171,-1.3848815,0.36
-0.7547811,10.729174,-1.3838689,0.31
-0.7892314,10.733175,-1.3848668,0.32
-0.8236759,10.745175,-1.3868723,0.36
-0.8399026,10.724179,-1.3838493,0.3
-0.8743464,10.73618,-1.3858545,0.36
-0.90880156,10.732183,-1.3858443,0.31
-0.9422464,10.724186,-1.3848302,0.29
-0.9766961,10.726189,-1.3848255,0.22
-0.8208493,8.189556,-1.011418,0.35
-0.84629756,8.17856,-1.0104035,0.62
-0.86052805,8.18856,-1.0114108,0.5
-1.096272,10.717197,-1.3847928,0.21
-0.9094309,8.137572,-1.0043542,0.36
-0.93487346,8.133575,-1.0043461,0.5
-0.9673275,8.204568,-1.0154085,0.45
-0.9937786,8.203569,-1.015403,0.65
-1.0212265,8.21557,-1.0174096,0.4
-1.2877532,10.738205,-1.3907712,0.35
-1.3222046,10.736208,-1.3907613,0.34
-1.3556502,10.72921,-1.3907466,0.3
-1.3901016,10.727213,-1.3907365,0.32
-1.4265584,10.740213,-1.39274,0.35
-1.4610007,10.744215,-1.3937354,0.35
-1.4944495,10.734219,-1.3927174,0.34
-1.512684,10.736218,-1.3937147,0.35
-1.5491284,10.7552185,-1.3967234,0.33
-1.5815765,10.737224,-1.3946977,0.32
-1.6160365,10.729225,-1.3946809,0.3
-1.6504825,10.729228,-1.3946716,0.29
-1.6829249,10.716231,-1.3936503,0.2
-1.5720545,9.785369,-1.2557876,0.62
-1.7396063,10.74723,-1.3996643,0.34
-1.7720587,10.728234,-1.3976368,0.31
-1.7995033,10.678245,-1.390581,0.2
-1.7118626,9.869366,-1.27083,0.36
-1.7072839,9.632401,-1.2366045,0.61
-1.9138618,10.742239,-1.4026086,0.32
-1.9290864,10.727243,-1.4005896,0.27
-1.9635353,10.724246,-1.4005761,0.21
-1.8508792,9.836379,-1.2697582,0.62
-2.035439,10.734248,-1.4035634,0.32
-2.069883,10.73325,-1.4045513,0.34
-2.1073437,10.74225,-1.4065479,0.33
-2.142784,10.748251,-1.4085422,0.33
-2.1580184,10.730254,-1.4065198,0.29
-2.1934595,10.735256,-1.4075127,0.32
-2.2339244,10.758254,-1.4125211,0.36
-2.2633655,10.72926,-1.4084833,0.34
-2.300822,10.73826,-1.411479,0.34
-2.3372688,10.745261,-1.4134729,0.35
-2.369719,10.729266,-1.411446,0.35
-2.3879406,10.733266,-1.4124433,0.34
-2.4253983,10.740267,-1.4144365,0.32
-2.4568453,10.721271,-1.4134067,0.36
-2.4952934,10.736271,-1.416407,0.34
-2.5337484,10.74827,-1.4194041,0.35
-2.5641978,10.723276,-1.4163685,0.32
-2.5986454,10.718279,-1.4163505,0.32
-2.6188688,10.730277,-1.4193542,0.32
-2.6573308,10.738278,-1.4213471,0.36
-2.689777,10.724282,-1.4203207,0.31
-2.7292325,10.738281,-1.4233186,0.36
-2.7616737,10.726284,-1.423294,0.3
-2.800129,10.735285,-1.425287,0.35
-2.837579,10.741286,-1.4272774,0.34
-2.8518093,10.7232895,-1.4252541,0.33
-2.8892536,10.731289,-1.4282463,0.35
-2.928715,10.741289,-1.4312394,0.33
-2.96216,10.731293,-1.4302152,0.33
-2.9956129,10.7192955,-1.4301893,0.34
-3.0380583,10.745294,-1.435196,0.34
-3.070519,10.726298,-1.4331633,0.34
-3.087732,10.726298,-1.4341557,0.34
-3.1261878,10.7323,-1.4361444,0.29
-3.158636,10.717303,-1.4351151,0.32
-3.197097,10.721304,-1.4371015,0.36
-3.2365491,10.731304,-1.4400932,0.31
-3.2719972,10.727306,-1.4410728,0.35
-3.30645,10.718309,-1.4410479,0.31
-3.3326793,10.745305,-1.4460618,0.36
-3.3601243,10.713312,-1.4430175,0.3
-3.382573,10.663321,-1.4369577,0.22
-3.294972,10.2463875,-1.3735913,0.37
-3.305417,10.162401,-1.362504,0.33
-3.3398583,10.162402,-1.3644874,0.52
-3.403329,10.25139,-1.3795435,0.32
-3.4145463,10.231395,-1.3765184,0.48
-3.483017,10.334379,-1.3945855,0.27
-3.4484413,10.111416,-1.3613836,0.38
-3.5089035,10.1894045,-1.3754296,0.52
-3.541353,10.179407,-1.3754032,0.48
-3.5797977,10.189407,-1.3783933,0.26
-3.580017,10.135417,-1.3703399,0.45
-3.6204712,10.149416,-1.3743327,0.47
-3.7909698,10.550355,-1.4376391,0.25
-3.8594398,10.640342,-1.4536915,0.0
-3.906896,10.668339,-1.4596936,0.16
-3.9423513,10.66034,-1.4606662,0.2
-3.9497874,10.574356,-1.4485766,0.12
-3.9890156,10.6333475,-1.4586135,0.0
-3.9114351,10.306399,-1.4093311,0.1
-3.9488769,10.3104,-1.4123142,0.14
-3.9513233,10.213417,-1.398216,0.14
-3.9521987,10.017451,-1.3710201,0.26
-3.8986273,9.775489,-1.3358091,0.26
-3.8968372,9.725498,-1.3287601,0.52
-3.9192843,9.691505,-1.3247132,0.25
-3.901722,9.552528,-1.3045845,0.26
-3.9611864,9.615519,-1.3166128,0.17
-3.9286153,9.441549,-1.2904576,0.14
-3.9330533,9.3655615,-1.2803789,0.16
-3.9314952,9.274577,-1.2682886,0.35
-3.9647183,9.316572,-1.2753109,0.23
-3.9781742,9.262581,-1.2692486,0.17
-3.9556065,9.122605,-1.2481215,0.0
-3.9310303,8.981628,-1.2279947,0.1
-3.9404793,8.92264,-1.2199296,0.17
-4.0069466,9.001629,-1.2349684,0.17
-4.015384,8.942639,-1.2269037,0.18
-3.9945931,8.854654,-1.2138277,0.1
-3.984038,8.750671,-1.1997293,0.0
-4.064497,8.862656,-1.2187922,0.0
-3.939906,8.496716,-1.1625001,0.05
-4.2198787,8.985638,-1.244818,0.0
-3.9262173,8.249759,-1.128259,0.0
-4.1059394,8.543714,-1.178442,0.12
-4.1293974,8.521719,-1.1764044,0.24
-4.147837,8.491725,-1.1733615,0.33
-4.161286,8.449733,-1.1693097,0.12
-4.1577206,8.372746,-1.1582335,0.34
-4.244191,8.487729,-1.1792934,0.09
-4.3924685,8.765683,-1.2254785,0.14
-4.2648687,8.42574,-1.1722158,0.19
-4.3533382,8.541722,-1.1932749,0.0
-4.2427435,8.243773,-1.1460438,0.1
-4.666319,9.04664,-1.2795793,0.2
-4.7307787,9.105631,-1.2915949,0.13
-4.6672,8.904667,-1.2604312,0.3
-4.6414175,8.816682,-1.2473581,0.0
-4.177715,7.820849,-1.0856531,0.11
-4.2321615,7.8688416,-1.0956645,0.31
-5.081874,9.4755745,-1.3627275,0.21
-5.056303,9.352595,-1.3446171,0.0
-4.281506,7.78086,-1.0875384,0.0
-4.4019876,7.951833,-1.1176295,0.0
-4.2556133,7.5808964,-1.0593492,0.0
-3.9339395,6.9180083,-0.9518923,0.0
-3.926378,6.8510222,-0.9418284,0.0
-3.94283,6.829026,-0.94079393,0.0
-3.948268,6.788035,-0.9357475,0.0
-3.9567149,6.752042,-0.9317041,0.0
-3.9449325,6.705051,-0.9246638,0.0
-3.9673848,6.695054,-0.9246371,0.0
-4.0068393,6.716051,-0.93062997,0.0
-3.9962885,6.6460648,-0.9205648,0.0
-6.3263984,10.7183695,-1.6080847,0.0
-4.9189124,8.106817,-1.1734015,0.0
-5.2082143,8.579737,-1.2546784,0.04
-6.4934387,10.655379,-1.611877,0.0
-6.571903,10.7113695,-1.6248722,0.11
-3.6494868,5.704237,-0.7748412,0.21
-3.6339197,5.637251,-0.76478314,0.26
-3.6373763,5.601258,-0.7607431,0.27
-3.6355846,5.5792627,-0.7577215,0.28
-3.6360242,5.5402713,-0.75268054,0.2
-3.6244802,5.480283,-0.7446267,0.2
-3.6489162,5.4822836,-0.7466102,0.46
-3.6353562,5.4212966,-0.7375568,0.25
-3.6448116,5.3973017,-0.7355244,0.26
-3.6732543,5.4053016,-0.73851085,0.3
-3.6654797,5.373309,-0.73348325,0.31
-3.7029388,5.3943057,-0.73947614,0.26
-3.7223954,5.3863096,-0.7394524,0.28
-3.7418406,5.379311,-0.7404297,0.25
-3.7713048,5.386312,-0.7434137,0.34
-3.7927487,5.382314,-0.7443923,0.26
-3.809972,5.3903127,-0.74738693,0.3
-3.8314254,5.3853145,-0.74836427,0.27
-3.869878,5.4063134,-0.7533554,0.29
-3.87833,5.3813186,-0.7513218,0.29
-3.9057813,5.3853183,-0.75430346,0.32
-3.9332414,5.3883204,-0.75628394,0.27
-3.9626868,5.3953204,-0.7592669,0.29
-3.9739246,5.3923206,-0.76025426,0.32
-3.9903765,5.379324,-0.7602264,0.32
-4.0128126,5.3763266,-0.7612042,0.0
-6.838503,9.03866,-1.437742,0.12
-6.8599553,9.007665,-1.435685,0.25
-6.9054046,9.010665,-1.4396442,0.23
-6.3941684,8.205812,-1.3002049,0.42
-6.429409,8.224809,-1.3061926,0.49
-6.5263157,8.245804,-1.3171219,0.54
-6.465748,8.11183,-1.2950248,0.18
-6.6082263,8.244803,-1.3240395,0.34
-6.552667,8.117826,-1.3039453,0.3
-6.589111,8.112829,-1.305903,0.51
-6.5743356,8.066836,-1.2998633,0.53
-6.655244,8.0648365,-1.3067791,0.59
-6.7241497,8.046838,-1.3106875,0.44
-6.7766085,8.059836,-1.3166491,0.53
-6.9173026,8.155816,-1.340619,0.44
-7.1208067,8.350779,-1.3816423,0.33
-7.46933,8.720706,-1.455725,0.43
-7.2361727,8.32878,-1.3894942,0.54
-7.5971456,8.649716,-1.458502,0.51
-7.5493574,8.56573,-1.4454502,0.38
-7.640276,8.561729,-1.4533471,0.55
-8.281859,9.250593,-1.5905029,0.2
-8.493355,9.434556,-1.6305,0.0
-6.1442337,6.691097,-1.1026586,0.13
-7.5200243,8.209795,-1.4020418,0.3
-7.465677,8.070822,-1.3809283,0.46
-7.972687,8.531727,-1.480944,0.48
-8.053148,8.566719,-1.4918981,0.21
-6.19314,6.4731393,-1.082339,0.47
-6.1916003,6.4291463,-1.0782863,0.18
-6.2438393,6.465141,-1.0862737,0.28
-6.2452807,6.426148,-1.0822238,0.2
-8.0011425,8.269772,-1.4545797,0.54
-5.9991016,6.083216,-1.021069,0.24
-8.161074,8.334755,-1.4774802,0.14
-5.9609847,5.9662395,-1.0049658,0.38
-5.997444,5.9662404,-1.0079254,0.54
-6.0526786,6.0052314,-1.0179126,0.13
-6.099139,6.0152283,-1.0238733,0.5
-6.1345882,6.014229,-1.0268321,0.13
-6.4171085,6.2651763,-1.0818299,0.36
-6.240519,6.045222,-1.0407517,0.16
-6.16894,5.935244,-1.0216937,0.36
-6.3414283,6.071215,-1.0536698,0.41
-6.3686714,6.0782123,-1.0576475,0.58
-6.334552,5.9682345,-1.0425462,0.33
-8.550519,8.10778,-1.4917275,0.16
-6.3664393,5.925243,-1.0404541,0.33
-8.897487,8.342726,-1.5516224,0.14
-9.2708,8.676651,-1.6256166,0.22
-8.306024,7.6958604,-1.4244746,0.39
-6.2864327,5.682292,-1.0072337,0.0
-7.0235133,6.3011565,-1.1471684,0.34
-6.4330378,5.693286,-1.0240746,0.44
-6.44849,5.671291,-1.0230273,0.5
-6.637425,5.772267,-1.0529336,0.5
-6.848381,5.8882394,-1.0868318,0.34
-6.72179,5.7382708,-1.0587859,0.21
-6.7120113,5.7112765,-1.0547619,0.5
-6.7324605,5.69328,-1.0547128,0.53
-6.836943,5.748266,-1.0716583,0.14
-6.7713623,5.6552854,-1.055614,0.33
-6.793809,5.639288,-1.0565646,0.45
-6.8622866,5.661282,-1.0655096,0.23
-6.852728,5.6172905,-1.0604618,0.32
-6.9059725,5.644283,-1.069432,0.54
-6.881402,5.588294,-1.0613865,0.18
-6.953872,5.6132874,-1.0713297,0.54
-6.976324,5.5962896,-1.0722781,0.13
-7.4638853,5.9672027,-1.1611722,0.19
-7.0662403,5.5992866,-1.0821686,0.31
-7.1186914,5.607282,-1.089113,0.51
-7.1459246,5.6112814,-1.0920838,0.32
-8.270647,6.4910727,-1.2998681,0.29
-7.3423195,5.6612635,-1.1189016,0.45
-7.3107615,5.5992775,-1.1088554,0.35
-7.4202323,5.6502633,-1.1257854,0.37
-7.3906736,5.5902762,-1.1167392,0.24
-7.695961,5.81322,-1.1726567,0.55
-8.465599,6.376082,-1.3114488,0.16
-8.475049,6.3420873,-1.3093873,0.17
-8.236437,6.11714,-1.2613796,0.32
-8.210886,6.057151,-1.253327,0.53
-8.196772,5.968168,-1.2432171,0.45
-8.23401,5.9761643,-1.248179,0.37
-8.162433,5.8841834,-1.2321411,0.0
-8.522973,6.113124,-1.2939906,0.09
-8.736466,6.2310915,-1.3288753,0.16
-8.542867,6.048135,-1.2898684,0.35
-8.829382,6.217089,-1.3377284,0.43
-8.4117365,5.873172,-1.2597884,0.12
-9.019093,6.293064,-1.3665823,0.35
-8.7144785,6.032127,-1.308611,0.38
-8.9179735,6.1370964,-1.3414884,0.16
-8.724377,5.9591384,-1.3034886,0.5
-8.562794,5.8051753,-1.2704808,0.27
-9.004331,6.076101,-1.3462777,0.3
-8.682485,5.8311625,-1.2873546,0.53
-8.994455,5.9671206,-1.3351268,0.19
-9.935116,6.5689573,-1.4977278,0.14
-9.536468,6.2550364,-1.423807,0.18
-9.912007,6.4649754,-1.4866005,0.41
-9.350334,6.045082,-1.384747,0.18
-9.604605,6.1950397,-1.427619,0.19
-9.126948,5.8361335,-1.3397411,0.13
-10.044601,6.399975,-1.497312,0.21
-9.380907,5.922101,-1.3775142,0.24
-9.501377,5.9600854,-1.3954018,0.5
-15.740139,9.937985,-2.4726918,0.17
-9.386252,5.8041196,-1.3683232,0.21
-11.18287,6.9298043,-1.6775103,0.19
-9.226342,5.6031632,-1.3332381,0.0
-9.1777725,5.5341787,-1.3211998,0.0
-9.208231,5.51418,-1.3231244,0.0
-11.1315565,6.612855,-1.6460787,0.16
-11.089773,6.563866,-1.6370611,0.18
-11.282264,6.6338396,-1.6658916,0.58
-9.757376,5.671111,-1.403577,0.19
-9.802832,5.6581106,-1.4074897,0.27
-9.814287,5.624115,-1.4064182,0.31
-9.839748,5.598117,-1.407339,0.29
-9.850187,5.565121,-1.4062703,0.33
-9.856419,5.548124,-1.4052337,0.29
-9.8758745,5.5191255,-1.406158,0.29
-9.893327,5.4891286,-1.4060835,0.3
-9.914783,5.461132,-1.406006,0.3
-9.932236,5.431135,-1.4059311,0.3
-9.940686,5.396139,-1.4048613,0.28
-9.968137,5.37214,-1.4067811,0.3
-10.011372,5.376137,-1.411723,0.34
-10.078841,5.373131,-1.4206173,0.33
-10.15431,5.374125,-1.4295058,0.3
-10.209773,5.36412,-1.4364059,0.35
-10.275227,5.3601155,-1.4443008,0.36
-10.3517,5.360108,-1.4541854,0.32
-10.417938,5.3751006,-1.4631104,0.35
-10.4914055,5.3730946,-1.4719958,0.29
-10.575878,5.376086,-1.4828727,0.46
-10.647335,5.3730803,-1.4917591,0.38
-10.7138,5.366075,-1.499646,0.32
-10.793274,5.365066,-1.510523,0.44
-10.853728,5.3550625,-1.5174135,0.34
-10.931979,5.373053,-1.5283244,0.39
-10.994439,5.363047,-1.5362114,0.33
-11.068908,5.358041,-1.5450883,0.38
-11.139369,5.351036,-1.5529677,0.34
-11.214834,5.3460283,-1.5628426,0.38
-11.296306,5.343022,-1.5727115,0.38
-11.381782,5.341014,-1.5835755,0.5
-11.351992,5.3060207,-1.5775609,0.0
-7.489525,3.4206684,-0.9522789,0.12
-7.462964,3.3806775,-0.9462525,0.26
-7.448405,3.3466847,-0.9422178,0.0
-7.4868755,3.3366823,-0.9471424,0.0
-7.5043244,3.3176844,-0.9480838,0.09
-7.4457555,3.2636988,-0.93708247,0.0
-7.4733343,3.181712,-0.93490136,0.0
-7.467793,3.1517184,-0.9318589,0.0
-7.483229,3.13272,-0.9328026,0.0
-7.5205426,2.7787774,-0.91713,0.0
-7.4867597,2.752785,-0.91113746,0.0
-7.4661927,2.7197933,-0.9061117,0.0
-8.819408,2.843634,-1.0951638,0.0
-8.783844,2.8026443,-1.0881455,0.0
-8.781292,2.7726474,-1.0870937,0.0
-8.871766,2.772638,-1.0989463,0.0
-8.84779,2.6326613,-1.0887222,0.0
-8.818232,2.5946686,-1.083699,0.0
-8.853702,2.5756671,-1.0876046,0.0
-8.858141,2.5486712,-1.086546,0.0
-8.813358,2.5206797,-1.0795665,0.0
-7.651489,2.1518695,-0.90177894,0.0
-7.644942,2.1248744,-0.899739,0.0
-7.717412,2.1208668,-0.9096125,0.0
-8.888181,2.4266846,-1.0852633,0.0
-7.668984,2.019888,-0.89850134,0.35
-7.6774316,1.9978894,-0.8994456,0.37
-7.718902,1.9838871,-0.9043504,0.37
-7.631312,1.9369043,-0.8904057,0.0
-23.382505,6.0184183,-3.2480943,0.0
-7.936313,1.965864,-0.9339554,0.0
-8.849787,2.186722,-1.0698622,0.0
-7.917417,1.8988775,-0.92785746,0.27
-7.942877,1.8798771,-0.9307782,0.37
-7.920328,1.8488837,-0.92675567,0.31
-7.951796,1.8308822,-0.93066806,0.38
-7.960246,1.8078852,-0.93060905,0.31
-7.9224534,1.7868927,-0.9246313,0.0
-8.25901,1.8388444,-0.97316897,0.13
-8.704573,1.9147775,-1.0385703,0.24
-8.758047,1.8987728,-1.0454483,0.21
-8.864526,1.8947597,-1.0602608,0.42
-8.947988,1.8857492,-1.0721018,0.25
-9.030469,1.8747406,-1.0829403,0.23
-9.137719,1.8837246,-1.098777,0.27
-9.25421,1.8787106,-1.1145697,0.18
-9.3907,1.8776935,-1.1333361,0.14
-9.517173,1.874677,-1.1511152,0.17
-9.702678,1.8816506,-1.177814,0.3
-9.858172,1.8816301,-1.1995493,0.11
-15.742325,2.9607077,-2.0657313,0.27
-15.769778,2.9167078,-2.06759,0.43
-15.791247,2.8697073,-2.0694528,0.31
-15.813699,2.824707,-2.0713174,0.31
-15.845166,2.779706,-2.0741668,0.3
-15.949651,2.7476912,-2.0889175,0.21
-16.19816,2.7406561,-2.1234734,0.38
-16.273407,2.7276468,-2.133315,0.37
-16.260857,2.6746516,-2.130222,0.39
-16.263313,2.6236544,-2.1291072,0.23
-16.25277,2.5706577,-2.1270103,0.5
-16.23422,2.5166638,-2.122925,0.31
-16.208672,2.4616706,-2.1178493,0.31
-16.172113,2.4056802,-2.1107905,0.34
-16.134333,2.3746874,-2.104788,0.29
-16.126791,2.322691,-2.1026871,0.3
-16.121243,2.2716947,-2.100585,0.33
-16.110697,2.2197,-2.097489,0.32
-16.096146,2.1677046,-2.0943997,0.31
-16.0826,2.1157093,-2.0913086,0.28
-16.081825,2.0907116,-2.0902548,0.33
-16.06928,2.0387166,-2.0871615,0.31
-16.063728,1.9887204,-2.0850601,0.34
-16.012178,1.9317302,-2.0770235,0.29
-16.014631,1.882733,-2.0759103,0.25
-15.997086,1.8307375,-2.072825,0.28
-15.997537,1.7817402,-2.0717146,0.27
-16.025003,1.7347386,-2.0745614,0.35
-16.002222,1.7077439,-2.070541,0.3
-15.968669,1.654752,-2.0644805,0.31
-15.962125,1.6047539,-2.0633798,0.26
-15.945578,1.5537585,-2.0602937,0.27
-15.9390335,1.5037624,-2.0581923,0.29
-15.928484,1.4537675,-2.0550978,0.3
-15.919717,1.427769,-2.0540545,0.31
-15.908168,1.377774,-2.0509615,0.31
-15.889615,1.3277783,-2.0478804,0.3
-15.855065,1.2757864,-2.041823,0.31
-15.837516,1.225791,-2.03874,0.34
-15.825974,1.1757941,-2.036646,0.31
-15.810419,1.126799,-2.0335612,0.34
-15.790646,1.1008028,-2.0305364,0.3
-15.792098,1.0528057,-2.0294242,0.32
-15.78056,1.0028089,-2.0273294,0.31
-15.764008,0.9538136,-2.024246,0.3
-15.765462,0.9058146,-2.024133,0.3
-15.762924,0.8568171,-2.0230243,0.33
-15.750378,0.8078203,-2.0209332,0.3
-15.763604,0.78482044,-2.0218568,0.34
-15.728054,0.7348267,-2.0168035,0.26
-15.74351,0.68782556,-2.0186672,0.3
-15.743975,0.63882846,-2.0175526,0.33
-15.722426,0.5898325,-2.0144765,0.29
-15.710876,0.5418359,-2.012385,0.3
-15.703327,0.4938397,-2.0102859,0.3
-15.689558,0.46884236,-2.008252,0.32
-15.690017,0.4208433,-2.0081387,0.32
-15.6854725,0.37284562,-2.007034,0.32
-15.670924,0.32484862,-2.004947,0.33
-15.660378,0.27685213,-2.0028524,0.32
-15.659838,0.22885299,-2.0027401,0.34
-15.647282,0.18185623,-2.0006516,0.32
-15.628515,0.15686025,-1.9976256,0.32
-15.628966,0.10986121,-1.9975135,0.31
-15.613422,0.061864138,-1.9954271,0.32
-15.606879,0.013868154,-1.9933249,0.34
-14.68927,-0.034817666,-2.0347216,0.3
-14.698717,-0.08281396,-2.0368085,0.31
-14.705155,-0.12981185,-2.0378883,0.33
-14.307706,-0.17287643,-1.9792484,0.34
-14.301151,-0.2188766,-1.9783038,0.3
-14.318597,-0.26587376,-1.9804026,0.33
-14.305046,-0.31187505,-1.9784452,0.32
-14.292273,-0.334875,-1.9774557,0.34
-14.287719,-0.3808754,-1.976514,0.31
-14.297155,-0.4268717,-1.9785966,0.28
-14.3155985,-0.473869,-1.9806964,0.26
-14.315051,-0.5208679,-1.9807626,0.23
-14.329493,-0.56786287,-1.983855,0.42
-14.341936,-0.6148595,-1.9859437,0.24
-14.374153,-0.6398532,-1.9910359,0.25
-14.3646,-0.685853,-1.9900842,0.28
-14.373044,-0.7328511,-1.9911653,0.3
-14.394487,-0.78084683,-1.9942707,0.31
-14.370935,-0.8258489,-1.9912922,0.28
-14.388379,-0.87384427,-1.9943902,0.3
-14.399818,-0.9208408,-1.9964759,0.34
-14.383042,-0.9428422,-1.994477,0.29
-14.39449,-0.99083877,-1.9965639,0.31
-14.390941,-1.0378373,-1.9966228,0.32
-14.392379,-1.0838366,-1.996689,0.32
-14.38983,-1.1308353,-1.9967493,0.32
-14.390275,-1.1778325,-1.9978148,0.34
-14.378725,-1.2238321,-1.9968574,0.32
-14.388942,-1.247829,-1.9989083,0.34
-14.407388,-1.2968245,-2.0020077,0.34
-14.403829,-1.3428231,-2.0020642,0.34
-14.413273,-1.3908195,-2.004146,0.34
-14.423716,-1.438816,-2.0062296,0.34
-14.435165,-1.4878125,-2.008316,0.32
-14.458599,-1.5368068,-2.0124235,0.32
-14.483812,-1.5628017,-2.0165029,0.33
-14.479261,-1.6098002,-2.016558,0.31
-14.497706,-1.659794,-2.0206575,0.3
-14.516151,-1.7097894,-2.0237567,0.35
-14.509591,-1.7557878,-2.0238066,0.29
-14.542034,-1.8077812,-2.028933,0.33
-14.568248,-1.8347744,-2.034015,0.32
-14.557692,-1.8807741,-2.0330572,0.27
-14.577138,-1.931768,-2.0371587,0.3
-14.600578,-1.9827622,-2.0412672,0.33
-14.611016,-2.0317588,-2.04335,0.29
-14.612469,-2.0807562,-2.0444167,0.3
-14.645897,-2.132748,-2.0505438,0.31
-14.660123,-2.1597435,-2.0536041,0.3
-14.669559,-2.20874,-2.0556843,0.3
-14.67501,-2.258736,-2.0577588,0.3
-14.683446,-2.3077323,-2.059837,0.32
-14.70789,-2.360725,-2.0649486,0.32
-14.736326,-2.4137182,-2.0700672,0.34
-14.732769,-2.461715,-2.0711224,0.3
-14.785976,-2.494706,-2.0792587,0.34
-14.825414,-2.5506966,-2.0864,0.26
-14.869849,-2.607686,-2.0945513,0.39
-14.885289,-2.6596813,-2.0976446,0.26
-14.88973,-2.7096775,-2.0997157,0.27
-14.8072,-2.7446876,-2.088614,0.36
-14.872633,-2.8066738,-2.099808,0.13
-10.032044,-1.9274518,-1.3711319,0.0
-9.961514,-1.9484607,-1.3610349,0.0
-9.505061,-1.893531,-1.293159,0.0
-9.319553,-1.889558,-1.2658271,0.0
-8.488745,-1.8566767,-1.1443214,0.0
-8.330241,-1.852699,-1.1210374,0.0
-8.183708,-1.8487192,-1.0997744,0.0
-8.068185,-1.8517336,-1.083575,0.0
-7.9836516,-1.860744,-1.071438,0.0
-7.8681192,-1.8617603,-1.0542362,0.0
-7.8073597,-1.861767,-1.0461292,0.0
-7.749824,-1.8757731,-1.0380461,0.0
-7.658285,-1.8807845,-1.0248917,0.0
-7.6027384,-1.893791,-1.0168108,0.0
-7.5721874,-1.9127911,-1.0137814,0.0
-7.529661,-1.9297951,-1.0077286,0.0
-7.455884,-1.9238042,-0.99759114,0.0
-7.429346,-1.9438064,-0.9935701,0.0
-7.3588047,-1.9518129,-0.98445636,0.0
-7.3372507,-1.9718138,-0.98144406,0.0
-7.3007164,-1.988815,-0.9774015,0.0
-7.274157,-2.0068173,-0.97337765,0.0
-7.231623,-2.0218194,-0.9683219,0.0
-7.2388325,-2.0358174,-0.96935236,0.0
-7.2152963,-2.0558162,-0.96733624,0.0
-7.186737,-2.0728185,-0.96330756,0.0
-7.165196,-2.0928175,-0.9612949,0.0
-7.1516504,-2.1148157,-0.9602987,0.0
-7.1260986,-2.1328163,-0.9572764,0.0
-7.1195536,-2.1568136,-0.95729494,0.0
-7.1167607,-2.167812,-0.95730376,0.0
-7.1002183,-2.188812,-0.9553009,0.0
-7.0886645,-2.2108088,-0.955308,0.0
-7.0611143,-2.2278109,-0.9512807,0.0
-7.043562,-2.2478087,-0.95027465,0.0
-7.044016,-2.273805,-0.95130765,0.0
-7.03524,-2.2838047,-0.95030457,0.0
-7.011691,-2.3018053,-0.94728535,0.0
-6.999148,-2.323802,-0.94729036,0.0
-7.0105906,-2.3527975,-0.9493462,0.0
-6.974032,-2.3657987,-0.9452978,0.0
-6.970492,-2.3907962,-0.94532216,0.0
-6.955947,-2.4117944,-0.9443222,0.0
-6.948168,-2.4217925,-0.94432074,0.0
-6.94461,-2.44579,-0.9443437,0.0
-6.9210687,-2.4637887,-0.94232404,0.0
-6.9195,-2.4877868,-0.9423504,0.0
-6.918956,-2.5137813,-0.94438094,0.0
