X,Y,Z,Intensity
-2.8081453,-2.175475,-1.6181691,0.41
-2.7694738,-2.1626244,-1.6001978,0.07
-2.665588,-2.1030197,-1.545251,0.15
-2.6570199,-2.1110542,-1.5452678,0.23
-2.6434228,-2.1151087,-1.5402862,0.3
-2.6418436,-2.127117,-1.5432992,0.22
-2.631252,-2.1331594,-1.5403162,0.13
-2.7458436,-2.2237303,-1.6072805,0.25
-2.7523355,-2.2437096,-1.6142924,0.35
-2.7437513,-2.2517447,-1.613309,0.36
-2.7451851,-2.2667415,-1.6183215,0.34
-2.7426338,-2.2797544,-1.6203362,0.36
-2.7441232,-2.296752,-1.6253504,0.29
-2.7415695,-2.3097641,-1.628365,0.4
-2.736756,-2.3127835,-1.6273729,0.41
-2.7361908,-2.3267887,-1.6303864,0.35
-2.720594,-2.3298495,-1.6254054,0.47
-2.7109985,-2.336888,-1.6234219,0.35
-2.7064524,-2.3489077,-1.6254376,0.41
-2.6938596,-2.353957,-1.6224552,0.53
-2.6582,-2.341092,-1.6054807,0.36
-2.6734579,-2.3600364,-1.6164819,0.45
-2.656861,-2.3621006,-1.610501,0.5
-2.6703603,-2.3880525,-1.6235105,0.36
-2.6447148,-2.3821497,-1.6125318,0.55
-2.6592152,-2.4090989,-1.6245408,0.31
-2.6285608,-2.3992143,-1.6105638,0.55
-2.6109633,-2.4002817,-1.6045828,0.39
-2.5941138,-2.3933444,-1.596594,0.47
-2.593573,-2.4083486,-1.600608,0.44
-2.5639148,-2.3984592,-1.5876298,0.5
-2.5643525,-2.4134595,-1.5916425,0.41
-2.593925,-2.4543533,-1.6136483,0.39
-2.5642726,-2.4444637,-1.60067,0.29
-2.5446434,-2.4425368,-1.5936884,0.43
-2.53883,-2.4445593,-1.5916961,0.38
-2.5352912,-2.4575737,-1.5947111,0.0
-2.5106318,-2.4506655,-1.5837302,0.0
-2.5130775,-2.467658,-1.5897425,0.0
-2.5025184,-2.4746983,-1.5877595,0.0
-2.5009334,-2.4877055,-1.5907724,0.0
-2.3503036,-2.6962674,-1.6040972,0.11
-2.3778632,-2.7411702,-1.6271063,0.21
-2.3291125,-2.707344,-1.6001271,0.23
-2.3124893,-2.7064025,-1.5951427,0.23
-2.3179777,-2.7293835,-1.6041557,0.41
-2.3041258,-2.7224329,-1.5971637,0.33
-2.2955513,-2.7304633,-1.5971785,0.53
-2.2799351,-2.7305186,-1.5921937,0.49
-2.2814085,-2.749513,-1.5992073,0.38
-2.2748363,-2.7595367,-1.5992216,0.43
-2.2581959,-2.7575948,-1.5942363,0.48
-2.2496219,-2.7656245,-1.5942509,0.35
-2.2317755,-2.7546873,-1.5852597,0.5
-2.224179,-2.7627137,-1.5852733,0.43
-2.205569,-2.7597787,-1.578289,0.38
-2.200002,-2.770798,-1.580303,0.36
-2.1864007,-2.7728453,-1.5763175,0.33
-2.1677465,-2.76791,-1.5693318,0.0
-2.1772652,-2.7968762,-1.581345,0.0
-0.5939514,-1.1482917,-0.53962445,0.0
-0.6782855,-1.3899021,-0.64973974,0.0
-0.62836057,-1.3240666,-0.61174005,0.0
-0.6046385,-1.2971407,-0.595744,0.0
-0.5738155,-1.2582401,-0.5727459,0.0
-0.52485645,-1.1914012,-0.5347448,0.0
-0.520014,-1.1874142,-0.532747,0.0
-0.5235314,-1.2013944,-0.53875506,0.0
-0.57638234,-1.2912071,-0.58577096,0.0
-0.5999803,-1.3361201,-0.6087819,0.0
-1.7329203,-3.1532872,-1.5850056,0.09
-1.6981905,-3.1193998,-1.5630134,0.14
-1.6903974,-3.1184237,-1.5610197,0.21
-1.6848214,-3.1304386,-1.5640323,0.36
-1.684268,-3.1504366,-1.5710459,0.37
-1.6545836,-3.1245315,-1.5540544,0.46
-1.6470021,-3.1335523,-1.5560669,0.44
-1.6635346,-3.1814933,-1.5780838,0.32
-1.6509264,-3.1825306,-1.5760952,0.52
-1.6531944,-3.198521,-1.5821036,0.4
-1.6476085,-3.210535,-1.5861161,0.43
-1.6269468,-3.1975994,-1.5761253,0.52
-1.6234026,-3.214607,-1.5811392,0.37
-1.62287,-3.2366037,-1.5901536,0.42
-1.6052268,-3.228658,-1.5821633,0.43
-1.588598,-3.2227082,-1.5761735,0.41
-1.590856,-3.238698,-1.5831817,0.54
-1.5701684,-3.2237625,-1.5721896,0.67
-1.5676278,-3.242766,-1.5792037,0.5
-1.5640739,-3.2597723,-1.5852172,0.54
-1.5454124,-3.2488294,-1.576226,0.44
-1.5187387,-3.224912,-1.5612332,0.57
-1.5282454,-3.2648754,-1.5792502,0.4
-1.5093619,-3.241935,-1.5662515,0.55
-1.5058042,-3.2589417,-1.571265,0.39
-1.5103124,-3.2919207,-1.5862815,0.46
-1.4866394,-3.2719936,-1.5722886,0.59
-1.478074,-3.281016,-1.5743012,0.4
-1.4714859,-3.292032,-1.5773132,0.51
-1.4598589,-3.293065,-1.5753233,0.53
-1.448029,-3.283101,-1.5683268,0.39
-1.437449,-3.2881296,-1.5683385,0.52
-1.4218159,-3.282175,-1.5623474,0.44
-1.4172403,-3.2971845,-1.5673602,0.38
-1.4116558,-3.3101969,-1.5713725,0.52
-1.3859833,-3.2852743,-1.5563781,0.64
-1.3804357,-3.300286,-1.5613916,0.63
-1.3786575,-3.309289,-1.5643984,0.59
-1.3690482,-3.3143141,-1.564409,0.57
-1.3584335,-3.3173425,-1.5634192,0.6
-1.3518748,-3.3303573,-1.567432,0.6
-1.3433044,-3.3393786,-1.5694442,0.55
-1.3357198,-3.349397,-1.571456,0.48
-1.3261085,-3.3544219,-1.5714664,0.46
-1.3122569,-3.3384633,-1.5624679,0.44
-1.3026652,-3.3444877,-1.563479,0.41
-1.2850266,-3.333538,-1.5554863,0.55
-1.2744154,-3.336566,-1.5544963,0.36
-1.2779167,-3.371547,-1.5695139,0.39
-1.2713479,-3.3845613,-1.5735264,0.48
-1.2625222,-3.3785865,-1.5695298,0.45
-1.2549161,-3.3876042,-1.5715408,0.48
-1.2453371,-3.3946278,-1.5725521,0.59
-1.2236677,-3.3736904,-1.5605567,0.53
-1.2120378,-3.3737214,-1.5575656,0.43
-1.2085041,-3.3947244,-1.5665802,0.41
-1.1969063,-3.3967545,-1.5645902,0.43
-1.192093,-3.3987665,-1.564595,0.44
-1.1875509,-3.417773,-1.571609,0.48
-1.1729035,-3.4108126,-1.5666162,0.51
-1.1593056,-3.4088488,-1.5626252,0.45
-1.1517272,-3.4198647,-1.566637,0.47
-1.1370691,-3.4119048,-1.5606434,0.56
-1.12246,-3.4069436,-1.5556515,0.48
-1.1206775,-3.416945,-1.5596584,0.45
-1.1100676,-3.4199715,-1.558668,0.41
-1.0984595,-3.421,-1.557677,0.51
-1.0878955,-3.4270253,-1.5576881,0.5
-1.0802828,-3.4360416,-1.5606987,0.48
-1.0646666,-3.4280832,-1.5547057,0.52
-1.0611343,-3.451085,-1.563721,0.48
-1.0573189,-3.4550936,-1.5647259,0.5
-1.047736,-3.462115,-1.5667366,0.54
-1.0351304,-3.4611468,-1.5637451,0.48
-1.0224974,-3.4581785,-1.5607526,0.5
-1.0119028,-3.4622033,-1.5607624,0.62
-1.002319,-3.4692247,-1.5617731,0.62
-0.99071366,-3.4702525,-1.5607818,0.61
-0.9758242,-3.444296,-1.5477785,0.56
-0.9712649,-3.4643013,-1.5547924,0.39
-0.9626776,-3.4733193,-1.5578033,0.43
-0.9490547,-3.4683537,-1.5528103,0.5
-0.9404665,-3.4773712,-1.5558211,0.36
-0.9248152,-3.4654124,-1.5478258,0.47
-0.9111983,-3.460446,-1.5438327,0.66
-0.90637344,-3.461457,-1.5438366,0.64
-0.8957825,-3.4654808,-1.5438461,0.64
-0.8851783,-3.4685044,-1.5438551,0.61
-0.8776084,-3.4815185,-1.547867,0.56
-0.8730833,-3.5055215,-1.5578825,0.46
-0.8644889,-3.5145385,-1.5608932,0.47
-0.8538808,-3.5175622,-1.560902,0.45
-0.845043,-3.5075858,-1.5549028,0.56
-0.8334181,-3.5066125,-1.5529102,0.68
-0.8228493,-3.512635,-1.5539205,0.65
-0.81323534,-3.5176554,-1.5549295,0.53
-0.802666,-3.5236769,-1.5569397,0.45
-0.7869893,-3.5077171,-1.547942,0.41
-0.78625345,-3.526713,-1.5559523,0.42
-0.7736151,-3.521743,-1.5519582,0.44
-0.75692946,-3.5017862,-1.5409591,0.54
-0.7453352,-3.5028117,-1.5399673,0.51
-0.7337063,-3.5008376,-1.537974,0.56
-0.72715914,-3.5198464,-1.5449879,0.59
-0.7145397,-3.515875,-1.5419943,0.57
-0.7077237,-3.5118916,-1.5389967,0.48
-0.69915754,-3.5239065,-1.5430083,0.54
-0.6824917,-3.5039482,-1.5330092,0.55
-0.6758923,-3.5189583,-1.538021,0.39
-0.66532314,-3.5249789,-1.5400307,0.53
-0.65469784,-3.5260012,-1.5390381,0.59
-0.6441166,-3.5310223,-1.5400473,0.55
-0.6443656,-3.5540147,-1.5500585,0.5
-0.62973136,-3.5420492,-1.543062,0.48
-0.62217635,-3.5590599,-1.550075,0.41
-0.61053026,-3.5550854,-1.5470805,0.47
-0.597908,-3.5501132,-1.543086,0.48
-0.58730346,-3.5531344,-1.5430942,0.56
-0.5756919,-3.5521586,-1.542101,0.62
-0.5678567,-3.5421774,-1.5371009,0.59
-0.557264,-3.5461977,-1.5381095,0.53
-0.549699,-3.5632083,-1.5441225,0.45
-0.53808856,-3.562232,-1.5431291,0.42
-0.5295328,-3.577245,-1.5481416,0.45
-0.5199031,-3.5812633,-1.5491494,0.47
-0.5082925,-3.5802865,-1.548156,0.44
-0.50451916,-3.590291,-1.5521631,0.48
-0.49493423,-3.5993075,-1.5551732,0.53
-0.48128846,-3.5873384,-1.5481757,0.56
-0.47069106,-3.591358,-1.549184,0.44
-0.46007523,-3.593378,-1.5491914,0.51
-0.4494772,-3.5973976,-1.5501995,0.4
-0.4409168,-3.613409,-1.5572121,0.42
-0.43308723,-3.6024277,-1.5512116,0.41
-0.42247102,-3.6044478,-1.5512187,0.42
-0.41088814,-3.6064692,-1.5512266,0.42
-0.3972224,-3.5904996,-1.5432271,0.43
-0.38354334,-3.5725312,-1.5332267,0.53
-0.3760342,-3.5995374,-1.5452436,0.39
-0.36846262,-3.619546,-1.5532573,0.41
-0.3596285,-3.6025672,-1.5452545,0.45
-0.34899768,-3.6025872,-1.5442607,0.41
-0.33944225,-3.6166005,-1.5502726,0.43
-0.3237043,-3.5806396,-1.533265,0.45
-0.30904633,-3.558673,-1.5222633,0.45
-0.30253178,-3.5916755,-1.5362822,0.47
-0.2898911,-3.5807014,-1.5302842,0.52
-0.2861219,-3.5937042,-1.5362923,0.51
-0.27859992,-3.62271,-1.5483098,0.45
-0.2669756,-3.6187317,-1.5463145,0.46
-0.25635317,-3.6197503,-1.5463208,0.41
-0.24779212,-3.6397603,-1.5543346,0.46
-0.23309542,-3.6097941,-1.5403291,0.46
-0.22834426,-3.6217992,-1.5453371,0.48
-0.2167235,-3.6178205,-1.5433418,0.46
-0.20406659,-3.6028466,-1.5353419,0.47
-0.19137566,-3.581874,-1.5253394,0.57
-0.18079597,-3.58889,-1.5283482,0.4
-0.16812405,-3.5699162,-1.5193466,0.43
-0.161624,-3.612916,-1.5383693,0.45
-0.15688245,-3.6279204,-1.5443786,0.45
-0.14523621,-3.6189425,-1.5393808,0.48
-0.13463293,-3.622959,-1.5413882,0.41
-0.12405621,-3.6319745,-1.5443978,0.43
-0.11242478,-3.6249952,-1.5414008,0.43
-0.100810476,-3.6210155,-1.5384051,0.47
-0.09119319,-3.6290288,-1.5424137,0.5
-0.08438926,-3.621042,-1.5384136,0.47
-0.07272639,-3.6070642,-1.5314136,0.52
-0.064209126,-3.6420693,-1.5474334,0.39
-0.051532544,-3.6180956,-1.5354292,0.53
-0.040936854,-3.6241107,-1.5384374,0.4
-0.029322403,-3.6191304,-1.535441,0.52
-0.017695872,-3.6111507,-1.5314435,0.38
-0.012898436,-3.6181564,-1.534449,0.48
-0.0012911551,-3.614175,-1.532453,0.62
0.009362474,-3.6071935,-1.5284554,0.38
0.01993088,-3.6202066,-1.5344663,0.43
0.030506467,-3.63222,-1.5394768,0.48
0.042195108,-3.607243,-1.5284717,0.41
0.0527829,-3.616257,-1.5324807,0.42
0.058506392,-3.6352615,-1.5404918,0.42
0.07016256,-3.6172826,-1.5324897,0.45
0.08077186,-3.621298,-1.5334966,0.43
0.09132645,-3.6413088,-1.5435103,0.49
0.10200512,-3.625328,-1.5355085,0.42
0.11361033,-3.6203456,-1.533512,0.42
0.118376285,-3.6403484,-1.5425229,0.49
0.1300039,-3.628368,-1.5365232,0.57
0.14060158,-3.637381,-1.5405321,0.4
0.1521866,-3.6393971,-1.5415385,0.45
0.16282538,-3.6344137,-1.5385413,0.44
0.1734365,-3.6394272,-1.5415484,0.45
0.18503228,-3.6374435,-1.5405529,0.45
0.1908351,-3.6344526,-1.5385543,0.46
0.20144299,-3.6414657,-1.5425622,0.48
0.21207944,-3.6364813,-1.539565,0.46
0.22368191,-3.630498,-1.5375676,0.44
0.23430589,-3.6305122,-1.5375725,0.46
0.24496141,-3.6135297,-1.5295702,0.52
0.25560266,-3.602546,-1.5245703,0.57
0.26138577,-3.6085525,-1.5275754,0.57
0.27200297,-3.611566,-1.5285815,0.48
0.2826464,-3.5965822,-1.5225799,0.55
0.2942112,-3.6125946,-1.5295918,0.4
0.30483353,-3.6126084,-1.5295964,0.48
0.31736156,-3.6356206,-1.5406115,0.39
0.3279996,-3.6226363,-1.5346107,0.43
0.33189395,-3.5896463,-1.5195987,0.54
0.34441057,-3.6316557,-1.5386217,0.4
0.35503682,-3.628669,-1.5386249,0.41
0.36662436,-3.6336827,-1.5406319,0.44
0.37821475,-3.634697,-1.5416373,0.46
0.3878786,-3.6237102,-1.5366368,0.46
0.3985042,-3.6197238,-1.5346397,0.52
0.4052626,-3.6297305,-1.5396466,0.54
0.4158879,-3.6257436,-1.5386494,0.52
0.42651266,-3.6227565,-1.5376526,0.4
0.4371371,-3.61877,-1.5356554,0.51
0.4487279,-3.621783,-1.5376613,0.4
0.46032012,-3.625796,-1.5396678,0.48
0.46611822,-3.6328015,-1.543673,0.5
0.4747969,-3.6008155,-1.5286634,0.45
0.48444745,-3.589828,-1.5236628,0.37
0.49409276,-3.57584,-1.5186609,0.55
0.5056826,-3.5798523,-1.5206672,0.38
0.51532644,-3.5678642,-1.5156661,0.48
0.5259447,-3.5658762,-1.5146697,0.48
0.53948575,-3.5858889,-1.5246831,0.33
0.54430634,-3.5798945,-1.5226825,0.39
0.55394626,-3.5679057,-1.5176814,0.34
0.56261396,-3.5529165,-1.5106788,0.05
0.5722532,-3.5439272,-1.5076787,0.0
0.58286,-3.536939,-1.50468,0.0
0.5934838,-3.5399494,-1.5066855,0.0
0.60122967,-3.5519564,-1.5126932,0.0
0.6089071,-3.5289657,-1.5026869,0.0
0.62148845,-3.5439777,-1.5096977,0.0
0.6389683,-3.5889924,-1.5317225,0.0
0.64566517,-3.5610003,-1.5197138,0.02
0.6582416,-3.5700128,-1.523722,0.03
0.6708352,-3.585024,-1.5317328,0.14
0.6776019,-3.5870304,-1.533736,0.22
0.68527395,-3.5660393,-1.5237304,0.27
0.697861,-3.5770507,-1.5297394,0.34
0.71143126,-3.5930629,-1.5387508,0.25
0.72007877,-3.5770717,-1.5317475,0.53
0.73464483,-3.6010845,-1.5437622,0.34
0.7432904,-3.585093,-1.5367589,0.44
0.7490872,-3.5850983,-1.5377609,0.35
0.76069564,-3.5891094,-1.5397667,0.44
0.76638824,-3.5591147,-1.5267566,0.4
0.77895766,-3.562126,-1.5287622,0.46
0.79450905,-3.5871396,-1.5417776,0.36
0.8011856,-3.5641456,-1.5317707,0.42
0.8118056,-3.5621548,-1.5317736,0.48
0.8245195,-3.600166,-1.5497931,0.29
0.8301924,-3.5691705,-1.5367826,0.46
0.84080505,-3.5651796,-1.5357845,0.37
0.8514345,-3.5651884,-1.5367881,0.6
0.8580877,-3.5401938,-1.5257803,0.38
0.86968595,-3.541203,-1.5277846,0.45
0.8803191,-3.5422118,-1.5287886,0.46
0.88908213,-3.5562196,-1.535797,0.31
0.9016746,-3.5622299,-1.5398035,0.32
0.91328746,-3.565239,-1.5428085,0.3
0.9209398,-3.5492444,-1.5358045,0.35
0.9335194,-3.5522544,-1.5388098,0.39
0.9421658,-3.5422606,-1.5348086,0.46
0.9459889,-3.5342631,-1.5318066,0.39
0.96055686,-3.547275,-1.5388163,0.39
0.97018945,-3.5412817,-1.5378169,0.43
0.97882664,-3.5302873,-1.5338153,0.38
0.9884344,-3.5202937,-1.5298144,0.31
0.999048,-3.517301,-1.5298165,0.29
1.0067017,-3.5043054,-1.5248137,0.27
1.0075518,-3.485304,-1.5168064,0.0
1.0231189,-3.5023167,-1.5258179,0.0
1.0327328,-3.4943225,-1.5238175,0.0
1.5112178,-3.3555372,-1.5338882,0.0
1.5337787,-3.3815544,-1.5489035,0.0
1.538418,-3.3635497,-1.5418974,0.0
1.5352626,-3.3415408,-1.5318881,0.02
1.5614517,-3.3455505,-1.5388954,0.26
1.5601434,-3.3165398,-1.5258837,0.25
1.5747261,-3.321546,-1.5308888,0.24
1.5823647,-3.3125446,-1.5288869,0.22
1.5989361,-3.3215535,-1.534894,0.27
1.60873,-3.33056,-1.5408995,0.19
1.6163452,-3.3195574,-1.5378968,0.23
1.6309606,-3.3265646,-1.5439026,0.38
1.6355942,-3.3095586,-1.5378968,0.31
1.6432315,-3.3005574,-1.534895,0.23
1.6518484,-3.2925558,-1.5338935,0.33
1.6634476,-3.2905583,-1.5348951,0.26
1.6672586,-3.2855568,-1.5338938,0.38
1.6838573,-3.2955656,-1.5409011,0.26
1.6914793,-3.2855628,-1.5388987,0.36
1.697097,-3.2705574,-1.5338938,0.3
1.7107015,-3.2735617,-1.5378977,0.3
1.7322866,-3.2935762,-1.5499098,0.38
1.7429092,-3.2905772,-1.5509106,0.29
1.748712,-3.289578,-1.5519114,0.34
1.7573161,-3.2805755,-1.5499095,0.42
1.776908,-3.2955868,-1.5599191,0.31
1.7805427,-3.2775788,-1.5539125,0.45
1.7911538,-3.273579,-1.553913,0.38
1.7987727,-3.2635753,-1.5519104,0.38
1.8075689,-3.2685795,-1.5559139,0.38
1.8211735,-3.2705834,-1.5589173,0.46
1.8317862,-3.266583,-1.5599176,0.38
1.8414149,-3.2615821,-1.5599173,0.42
1.853012,-3.2585824,-1.5619183,0.45
1.8616425,-3.25158,-1.5609169,0.3
1.8632804,-3.230569,-1.552909,0.45
1.8720827,-3.235573,-1.5569124,0.38
1.8647673,-3.199552,-1.5408969,0.59
1.8793596,-3.202556,-1.5449007,0.38
1.9079057,-3.2305753,-1.5629166,0.31
1.9125499,-3.2165678,-1.5589118,0.42
1.9331362,-3.2305787,-1.5679209,0.39
1.9507254,-3.2385855,-1.575927,0.52
1.9455434,-3.216572,-1.5659174,0.53
1.9541726,-3.209569,-1.564916,0.38
1.9657742,-3.2065682,-1.5669167,0.43
1.9734174,-3.1985645,-1.5649147,0.41
1.9790407,-3.185557,-1.5619104,0.52
2.0065942,-3.2095742,-1.5779244,0.39
2.004249,-3.1835577,-1.5669136,0.48
2.0190315,-3.1975677,-1.5759217,0.39
2.0336292,-3.1995704,-1.5799246,0.44
2.0382652,-3.185562,-1.5759199,0.45
2.0409253,-3.1695518,-1.5699137,0.43
2.0565116,-3.172555,-1.5749173,0.5
2.0591526,-3.155544,-1.568911,0.38
2.0707588,-3.1525426,-1.5709116,0.46
2.0845356,-3.1635506,-1.577918,0.52
2.0821862,-3.1385336,-1.5679077,0.47
2.1007736,-3.14654,-1.5759137,0.41
2.1203692,-3.1565475,-1.5849204,0.43
2.1220164,-3.1385353,-1.5779135,0.57
2.1356199,-3.1385355,-1.5819154,0.56
2.1462262,-3.1335323,-1.582915,0.69
2.1450534,-3.1215239,-1.57791,0.4
2.147682,-3.1045117,-1.5719036,0.45
2.1573145,-3.0995083,-1.5729029,0.54
2.158933,-3.0804946,-1.5658957,0.63
2.172538,-3.0804946,-1.5688974,0.59
2.1921146,-3.0885003,-1.5779034,0.48
2.1997526,-3.0804942,-1.5769012,0.48
2.205568,-3.0794933,-1.5779016,0.45
2.2241619,-3.0864987,-1.5849068,0.46
2.226799,-3.0704865,-1.5799007,0.47
2.233411,-3.0594776,-1.5778973,0.5
2.2520106,-3.066483,-1.5849025,0.44
2.2496567,-3.0434651,-1.575893,0.44
2.268241,-3.049469,-1.5828978,0.43
2.2730503,-3.0464664,-1.5828972,0.48
2.2726896,-3.0264504,-1.5758892,0.58
2.2922873,-3.0344563,-1.5838947,0.38
2.300915,-3.02745,-1.5838931,0.47
2.3095243,-3.019443,-1.582891,0.4
2.3181517,-3.0124369,-1.5828892,0.51
2.3309104,-3.018441,-1.5888932,0.4
2.3345442,-3.004429,-1.584888,0.41
2.3391676,-2.991418,-1.5818833,0.49
2.3547745,-2.9934182,-1.5868859,0.38
2.3504312,-2.9693983,-1.5768758,0.51
2.3690345,-2.975402,-1.5838804,0.39
2.387622,-2.9804046,-1.5918846,0.43
2.3804483,-2.9613888,-1.5828762,0.45
2.388063,-2.9523802,-1.5818734,0.42
2.4066737,-2.9583838,-1.588878,0.45
2.4123037,-2.9473734,-1.5868742,0.53
2.4209116,-2.9393654,-1.586872,0.48
2.4365292,-2.9413657,-1.5918745,0.43
2.436335,-2.931357,-1.5878706,0.47
2.44693,-2.9253502,-1.5888693,0.45
2.4465766,-2.9073334,-1.582862,0.5
2.4492013,-2.8923194,-1.5778563,0.64
2.4648228,-2.8943193,-1.5828588,0.46
2.4923737,-2.908329,-1.5968673,0.41
2.501003,-2.9013212,-1.5968654,0.43
2.501818,-2.8933136,-1.5938624,0.41
2.516413,-2.8923109,-1.5978634,0.42
2.5240476,-2.884302,-1.597861,0.44
2.5346665,-2.879296,-1.5988601,0.43
2.5282927,-2.8532717,-1.587849,0.46
2.5329194,-2.841259,-1.5858448,0.46
2.5455265,-2.8382542,-1.5878447,0.44
2.5553339,-2.8412557,-1.592847,0.46
2.5639415,-2.8332465,-1.5928446,0.5
2.575577,-2.8302417,-1.5948446,0.52
2.584185,-2.822232,-1.5948422,0.6
2.5907803,-2.81122,-1.5928384,0.56
2.611381,-2.8172226,-1.6018428,0.44
2.618019,-2.8082123,-1.6008399,0.5
2.617809,-2.7982018,-1.5978358,0.56
2.6264174,-2.7901921,-1.5978334,0.49
2.6380575,-2.787187,-1.5998333,0.43
2.6436763,-2.7761745,-1.5978293,0.5
2.6572683,-2.7731688,-1.6018294,0.53
2.6658776,-2.765159,-1.6018269,0.45
2.6735108,-2.757149,-1.6018244,0.49
2.67633,-2.752143,-1.6008227,0.4
2.6799304,-2.7381272,-1.5978174,0.47
2.6935477,-2.7361224,-1.6008179,0.52
2.7051497,-2.7311149,-1.6028168,0.43
2.710765,-2.7201014,-1.6018128,0.56
2.716402,-2.7100892,-1.5998094,0.37
2.7190216,-2.696073,-1.596804,0.44
2.7298248,-2.6990743,-1.6008062,0.49
2.7364366,-2.6890619,-1.5998027,0.46
2.7480628,-2.685055,-1.6018021,0.5
2.7526548,-2.6720393,-1.5997972,0.61
2.7582893,-2.6620266,-1.5977938,0.62
2.7629237,-2.6510127,-1.5967897,0.43
2.7806807,-2.6590183,-1.6047944,0.41
2.7893126,-2.652008,-1.6057923,0.44
2.7949245,-2.640994,-1.6037884,0.43
2.805533,-2.6349847,-1.6057868,0.43
2.8051686,-2.618966,-1.6007804,0.49
2.8088014,-2.606951,-1.5977759,0.54
2.8323855,-2.6129527,-1.6077801,0.51
2.8272023,-2.5999384,-1.6017745,0.45
2.8338108,-2.5899248,-1.601771,0.46
2.8424428,-2.5829146,-1.6017689,0.41
2.8560312,-2.578906,-1.6057684,0.46
2.858661,-2.56589,-1.6017634,0.47
2.879256,-2.5688882,-1.6107662,0.45
2.8878906,-2.5618775,-1.611764,0.48
2.891684,-2.5568705,-1.6117622,0.47
2.901297,-2.5498598,-1.6117601,0.52
2.8949363,-2.528835,-1.6037514,0.52
2.9135134,-2.5288303,-1.6107527,0.39
2.9241283,-2.5228202,-1.6117511,0.51
2.9367473,-2.5188117,-1.6157504,0.39
2.9403508,-2.5057945,-1.6127455,0.47
2.9411619,-2.4987853,-1.6117427,0.52
2.9467914,-2.488771,-1.6107392,0.42
2.9584103,-2.4837618,-1.612738,0.43
2.961008,-2.469743,-1.6097326,0.6
2.9666367,-2.4597285,-1.6087291,0.4
2.9762511,-2.4527168,-1.610727,0.5
2.9878721,-2.4477074,-1.6127257,0.45
2.9706998,-2.425683,-1.6007159,0.46
3.000278,-2.434687,-1.6137215,0.39
3.0198784,-2.4356825,-1.6217232,0.43
3.0165017,-2.41766,-1.6147157,0.45
3.021101,-2.4056427,-1.6127113,0.45
3.0437176,-2.4096417,-1.6217145,0.41
3.024547,-2.3866162,-1.6087041,0.46
3.0411422,-2.384609,-1.6147043,0.53
3.055756,-2.3816009,-1.6187041,0.46
3.0453904,-2.3585725,-1.6086944,0.47
3.0569916,-2.3525608,-1.6116927,0.46
3.0855718,-2.3595622,-1.6236973,0.48
3.0882106,-2.347545,-1.6216928,0.41
3.0870302,-2.3395343,-1.6186895,0.45
3.1016254,-2.3355248,-1.6226888,0.43
3.0722773,-2.2984817,-1.6016725,0.57
2.9390361,-2.1833594,-1.5226195,0.0
3.1074722,-2.295467,-1.6146735,0.0
1.5689601,-0.9959793,-0.7010944,0.0
1.5929699,-0.9628795,-0.70409083,0.0
3.3616045,-2.031999,-1.6465855,0.04
3.3562303,-2.0149739,-1.6405787,0.17
3.3298583,-1.9849344,-1.6235662,0.25
3.3374734,-1.9759179,-1.624563,0.24
3.3572693,-1.9809197,-1.6335659,0.4
3.368874,-1.9739051,-1.6365638,0.34
3.3844678,-1.9688923,-1.6415627,0.3
3.3870883,-1.9568722,-1.6405582,0.36
3.3927135,-1.9468545,-1.6405547,0.0
3.386316,-1.9288274,-1.6335477,0.0
3.395929,-1.9208117,-1.6355451,0.0
3.4337215,-1.9358244,-1.6545525,0.0
3.759655,-1.7484207,-1.7504959,0.08
3.7434556,-1.7333995,-1.7414899,0.18
3.717082,-1.7073622,-1.7254795,0.19
3.7466865,-1.7073541,-1.7384806,0.23
3.7472863,-1.6933299,-1.7354754,0.53
3.7449234,-1.6793064,-1.7324703,0.52
3.7965047,-1.6883081,-1.7554753,0.4
3.8253028,-1.6943109,-1.7684785,0.38
3.828897,-1.6812876,-1.7674738,0.43
3.8405013,-1.6722691,-1.771471,0.48
3.859103,-1.6662539,-1.7774694,0.46
3.869723,-1.6572356,-1.7814665,0.47
3.881332,-1.6482171,-1.7844636,0.55
3.9049087,-1.6432024,-1.7934626,0.71
3.9127047,-1.6391935,-1.7964615,0.68
3.92333,-1.6301752,-1.7994585,0.47
3.9249527,-1.6171522,-1.797454,0.46
3.9315438,-1.6051296,-1.7984498,0.58
3.9141645,-1.5840971,-1.7874417,0.59
3.9217696,-1.5730759,-1.7894381,0.42
3.925366,-1.5600522,-1.7884336,0.39
3.9221787,-1.5520388,-1.7864307,0.37
3.9367886,-1.544021,-1.7914283,0.32
3.941401,-1.5319988,-1.7914243,0.34
3.9370022,-1.5159714,-1.7864184,0.33
3.9546099,-1.5089546,-1.7934165,0.25
3.9612286,-1.4979335,-1.7944129,0.25
3.9770281,-1.4969279,-1.8014129,0.26
3.99761,-1.4899106,-1.8094112,0.34
3.9952445,-1.4758862,-1.8064061,0.34
4.0018387,-1.4638631,-1.8064022,0.36
4.0034575,-1.4508394,-1.8063978,0.36
3.99306,-1.4328095,-1.7983912,0.36
4.0056477,-1.4227885,-1.8023882,0.36
4.012465,-1.4187797,-1.8053869,0.36
3.994088,-1.3987478,-1.7943796,0.38
4.0036783,-1.3877257,-1.7963761,0.39
4.0102997,-1.3767041,-1.7983725,0.4
3.9919145,-1.3566719,-1.7873652,0.44
3.9805124,-1.3386415,-1.7803588,0.0
3.7052495,1.4058034,-1.7518945,0.23
3.7178423,1.4238329,-1.7598938,0.36
3.7154186,1.4368569,-1.7618943,0.33
3.710206,1.4418671,-1.759895,0.31
3.7137918,1.4568932,-1.7638952,0.31
3.6983688,1.4649112,-1.7588968,0.31
3.7019558,1.4799371,-1.7638972,0.32
3.7005455,1.4929607,-1.7648977,0.3
3.6911309,1.5029806,-1.7638991,0.33
3.6826968,1.5140023,-1.7619003,0.29
3.697514,1.5260198,-1.7698992,0.43
3.677085,1.5320356,-1.7629018,0.39
3.6716874,1.5430562,-1.7629029,0.32
3.6782572,1.5600845,-1.7689029,0.33
3.6678274,1.5701047,-1.7659045,0.36
3.6654072,1.583128,-1.7679055,0.36
3.6640005,1.5961511,-1.7689064,0.33
3.6558073,1.5991583,-1.7669075,0.34
3.6693833,1.6191897,-1.7759069,0.4
3.6529648,1.6262059,-1.7709093,0.34
3.6495337,1.6392293,-1.7719104,0.36
3.6471162,1.6522523,-1.7739116,0.33
3.6497056,1.6672773,-1.7779121,0.39
3.64428,1.6792994,-1.7779136,0.35
3.6330724,1.6813056,-1.7739152,0.21
3.658646,1.7073432,-1.7899137,0.32
3.646247,1.7153602,-1.7859159,0.0
3.633816,1.7243786,-1.782918,0.0
3.5458977,2.0629506,-1.8239636,0.01
3.5414972,2.0749707,-1.8239659,0.07
3.5290546,2.0839877,-1.8219692,0.21
3.5308619,2.0919998,-1.8239698,0.23
3.537415,2.1120286,-1.8319712,0.13
3.526016,2.1200438,-1.8289741,0.2
3.5285919,2.137069,-1.834976,0.2
3.5551705,2.1681092,-1.8529752,0.0
3.5237527,2.1651127,-1.8399805,0.0
3.5223234,2.180136,-1.8429828,0.0
3.5150988,2.1841438,-1.8409846,0.0
2.9396029,2.3285062,-1.6631337,0.0
2.9161708,2.3265102,-1.6541394,0.02
2.9107528,2.3375266,-1.655143,0.13
2.906329,2.3495443,-1.6571468,0.17
2.862141,2.3225198,-1.6331525,0.18
2.8357136,2.3175204,-1.6221583,0.25
2.8112967,2.3135219,-1.6121639,0.24
2.8118613,2.3295436,-1.6171674,0.23
2.774461,2.3145337,-1.6001741,0.16
2.7660215,2.323548,-1.6001785,0.32
2.760621,2.3335633,-1.6001823,0.0
2.7293997,2.3165495,-1.5841869,0.0
2.71499,2.3195577,-1.5801917,0.0
2.6985602,2.321565,-1.5751967,0.0
2.6641383,2.3085575,-1.5592034,0.0
2.6467056,2.309564,-1.5532086,0.0
2.6383114,2.3165758,-1.5522128,0.0
2.6008866,2.3005655,-1.5352197,0.0
2.5916674,2.3005683,-1.5312225,0.0
2.5782623,2.303576,-1.5282272,0.0
2.5448594,2.2895677,-1.5122336,0.0
2.527436,2.289573,-1.5062389,0.0
2.5129964,2.2925813,-1.502244,0.0
2.4876003,2.2845783,-1.4912498,0.0
2.4753833,2.281578,-1.4852527,0.0
2.4669712,2.2885897,-1.4852573,0.0
2.4395416,2.2795866,-1.4732635,0.0
2.420106,2.2775898,-1.4652691,0.0
2.413681,2.2866035,-1.4662734,0.0
2.3832762,2.273596,-1.4522798,0.0
2.3718638,2.2776046,-1.4492846,0.0
2.3546476,2.2695997,-1.4412879,0.0
2.3312361,2.2625978,-1.4312937,0.0
2.321811,2.2686086,-1.4302984,0.0
2.3143802,2.276621,-1.4303031,0.0
2.2869668,2.2656157,-1.4173094,0.0
2.2615724,2.255611,-1.405315,0.0
2.2881253,2.295653,-1.4273175,0.0
2.2379258,2.2556183,-1.3983232,0.02
2.225525,2.257625,-1.3943281,0.08
2.2150893,2.2626343,-1.3933332,0.08
2.1936984,2.2556324,-1.3833386,0.09
2.176237,2.2546368,-1.3773445,0.18
2.1598315,2.2526395,-1.3713498,0.23
2.1353996,2.2436364,-1.3603559,0.23
2.128223,2.2426372,-1.3583581,0.21
2.126768,2.2566552,-1.3623629,0.13
2.0963585,2.2406452,-1.3473692,0.2
2.0869656,2.244653,-1.3453739,0.05
2.0825112,2.2556677,-1.348379,0.0
2.0651166,2.2516685,-1.3413842,0.0
2.0476878,2.2486706,-1.3343898,0.0
2.037502,2.244669,-1.3303925,0.0
2.0250702,2.2466753,-1.3273978,0.0
2.0176406,2.253686,-1.327403,0.0
2.0062375,2.255692,-1.3244079,0.0
1.9818169,2.2446868,-1.3124139,0.0
1.9794208,2.2557003,-1.3164184,0.0
1.9639754,2.2547042,-1.3114241,0.0
1.9477674,2.2446976,-1.3024274,0.0
1.94534,2.2567127,-1.3054322,0.0
1.9379344,2.2627218,-1.3054371,0.0
1.9164971,2.2547193,-1.2964432,0.0
1.899064,2.2507203,-1.289449,0.0
1.8906512,2.2557285,-1.2894541,0.0
1.8622402,2.238718,-1.2744602,0.0
1.8670129,2.2517314,-1.2804625,0.0
1.8566203,2.253737,-1.2784675,0.0
1.8322091,2.2407298,-1.2664734,0.0
1.8337637,2.2577486,-1.2724785,0.0
1.8103777,2.2447412,-1.261484,0.0
1.7939528,2.240742,-1.2554897,0.0
1.7855276,2.2457502,-1.254495,0.0
1.784313,2.2517571,-1.2564977,0.0
1.7768924,2.2577662,-1.256503,0.0
1.7574747,2.2497633,-1.2475086,0.0
1.7450566,2.249767,-1.2445141,0.0
1.7286456,2.244767,-1.2375196,0.0
1.7162223,2.2447705,-1.2345252,0.0
1.7147988,2.257785,-1.2385305,0.0
1.6956015,2.2417738,-1.2275335,0.0
1.687166,2.246782,-1.226539,0.0
1.6797662,2.2517893,-1.2265441,0.0
1.6563532,2.2377818,-1.2145499,0.0
1.6549298,2.250796,-1.2185553,0.0
1.6385256,2.2447944,-1.2125608,0.0
1.6342902,2.247799,-1.2125639,0.0
1.6049058,2.224784,-1.1955693,0.0
1.6134367,2.2518094,-1.2075751,0.0
1.5980289,2.246809,-1.2015805,0.0
1.5836253,2.2428088,-1.196586,0.0
1.5822053,2.2558224,-1.2015915,0.0
1.5517826,2.2318072,-1.1835972,0.0
1.5486096,2.2338104,-1.1835996,0.0
1.5361527,2.233814,-1.1806056,0.0
1.5327147,2.244826,-1.1836115,0.0
1.5103103,2.2298176,-1.1716169,0.0
1.5128987,2.2478347,-1.1796224,0.0
1.4974654,2.242834,-1.1736282,0.0
1.4920386,2.250844,-1.1746341,0.0
1.4738611,2.2328312,-1.1636363,0.0
1.4674507,2.2388391,-1.1636419,0.0
1.4540553,2.2348392,-1.1586472,0.0
1.4496075,2.24485,-1.1616533,0.0
1.4252039,2.2258387,-1.1476585,0.0
1.419772,2.233848,-1.1496645,0.0
1.4133587,2.2398553,-1.1506702,0.0
1.4041407,2.234853,-1.1466731,0.0
1.3996923,2.244864,-1.1486793,0.0
1.3803241,2.2308562,-1.138684,0.0
1.3738793,2.2378645,-1.1396903,0.0
1.353489,2.222856,-1.1286952,0.0
1.3610485,2.2498786,-1.1417019,0.0
1.3456308,2.2428765,-1.1347073,0.0
1.331222,2.236875,-1.1287129,0.0
1.3219897,2.2318728,-1.1247158,0.0
1.3125858,2.2328763,-1.1227214,0.0
1.3031524,2.2348807,-1.1207274,0.0
1.2947326,2.2378852,-1.1207334,0.0
1.2623097,2.2418969,-1.114753,0.0
1.2182072,2.2529166,-1.1087829,0.0
1.1959885,2.2258997,-1.0927846,0.0
1.1826096,2.2188973,-1.0867895,0.0
1.1921765,2.2509212,-1.1017971,0.0
1.1687626,2.2289088,-1.0878018,0.0
1.1673125,2.2439215,-1.0928088,0.0
1.1548897,2.2399206,-1.0888146,0.0
1.1424904,2.2349198,-1.0838199,0.0
1.1372939,2.2339203,-1.0818226,0.0
1.1348583,2.2469306,-1.0878296,0.0
1.1244112,2.246933,-1.0848359,0.0
1.1180106,2.2519379,-1.0858419,0.0
1.1046103,2.2449355,-1.079847,0.0
1.0991488,2.2539437,-1.0818541,0.0
1.1057633,2.2809622,-1.0948615,0.0
1.0902959,2.2729592,-1.0878677,0.0
1.0970731,2.2939732,-1.0988724,0.0
1.0657228,2.252949,-1.0748744,0.0
1.0612835,2.262957,-1.0778815,0.0
1.0538619,2.2669616,-1.0778879,0.0
1.0414646,2.2609594,-1.0728931,0.0
1.0260524,2.249954,-1.0658982,0.0
1.0278155,2.262963,-1.0709026,0.0
1.0164074,2.2589624,-1.0669081,0.0
1.0040002,2.2529602,-1.0619135,0.0
1.0025786,2.2679708,-1.0679209,0.0
0.9911903,2.262969,-1.063926,0.0
0.9817442,2.2639713,-1.0619327,0.0
0.9783333,2.274979,-1.0659397,0.0
0.9680845,2.2659748,-1.0599425,0.0
0.9607062,2.267977,-1.0599481,0.0
0.9452642,2.2569723,-1.0519536,0.0
0.9408313,2.2669795,-1.0549608,0.0
0.93245125,2.2669804,-1.0539664,0.0
0.9280213,2.2769873,-1.0569737,0.0
0.91661626,2.2719855,-1.0529792,0.0
0.9113772,2.271986,-1.0519826,0.0
0.9029465,2.2739885,-1.0509892,0.0
0.8915825,2.2669857,-1.0459938,0.0
0.885129,2.2739904,-1.0480013,0.0
0.88172853,2.2849972,-1.0520084,0.0
0.8693112,2.2779944,-1.0470139,0.0
0.8598746,2.2779953,-1.0450203,0.0
0.85267174,2.2719924,-1.0410227,0.0
0.8482711,2.2809982,-1.0440297,0.0
0.8398359,2.283,-1.0440364,0.0
0.8353933,2.294006,-1.0480444,0.0
0.82401276,2.2870033,-1.0430493,0.0
0.81457126,2.287004,-1.0410558,0.0
0.80814403,2.2930076,-1.0430632,0.0
0.8039473,2.2930079,-1.0420661,0.0
0.7974991,2.3000119,-1.0440737,0.0
0.7921228,2.3060155,-1.0450802,0.0
0.7866622,2.3160205,-1.0490885,0.0
0.7733,2.3030145,-1.0410923,0.0
0.7668331,2.3110185,-1.0441005,0.0
0.7534421,2.2990131,-1.0361048,0.0
0.75522524,2.3140204,-1.0431104,0.0
0.74582016,2.3120196,-1.0401162,0.0
0.73439723,2.306017,-1.0361218,0.0
0.7289405,2.316022,-1.0391303,0.0
0.7165664,2.3050165,-1.0331345,0.0
0.7081436,2.3060172,-1.0321412,0.0
0.70771813,2.3270266,-1.0411508,0.0
0.69650835,2.3100188,-1.0321516,0.0
0.69105566,2.3200233,-1.0351602,0.0
0.68267226,2.3190227,-1.0331658,0.0
0.6722459,2.3150208,-1.030172,0.0
0.6638596,2.3140202,-1.0281777,0.0
0.6573992,2.3220232,-1.0311862,0.0
0.6510174,2.3260245,-1.032193,0.0
0.64377666,2.3200219,-1.0281956,0.0
0.6363624,2.3230228,-1.0282027,0.0
0.62596536,2.31702,-1.024208,0.0
0.62053996,2.3260229,-1.0282161,0.0
0.62011176,2.3490314,-1.0382267,0.0
0.6027052,2.3240209,-1.024229,0.0
0.5992756,2.3390262,-1.0302384,0.0
0.59604955,2.343027,-1.0322427,0.0
0.58564544,2.337024,-1.0282481,0.0
0.580227,2.346027,-1.0312563,0.0
0.57377714,2.354029,-1.033265,0.0
0.5613894,2.3410232,-1.0262688,0.0
0.55395806,2.3450234,-1.0272765,0.0
0.5525092,2.3680305,-1.0372881,0.0
0.55130446,2.3770332,-1.041293,0.0
0.5459138,2.385035,-1.0443009,0.0
0.5404751,2.3960376,-1.0483102,0.0
0.52308667,2.367026,-1.0333109,0.0
0.51564264,2.3720267,-1.0343192,0.0
0.5062433,2.3680239,-1.031325,0.0
0.49583882,2.36102,-1.0273303,0.0
0.49462494,2.3710227,-1.0313357,0.0
0.48319802,2.3620183,-1.0263408,0.0
0.47576955,2.3660178,-1.0273488,0.0
0.468373,2.368017,-1.0273557,0.0
0.46690166,2.3950236,-1.039369,0.0
0.4585184,2.393021,-1.037375,0.0
0.4510951,2.3970203,-1.0383829,0.0
0.44784948,2.4030213,-1.0403883,0.0
0.43943542,2.4030192,-1.0393952,0.0
0.42903414,2.3950152,-1.0344002,0.0
0.4256305,2.4120178,-1.0424107,0.0
0.4122004,2.395011,-1.0334142,0.0
0.4067681,2.4070117,-1.0384241,0.0
0.40335843,2.4250147,-1.0454352,0.0
0.39913753,2.4260137,-1.0454391,0.0
0.39072317,2.4260113,-1.0444461,0.0
0.3812839,2.424008,-1.0434533,0.0
0.37289476,2.4220052,-1.0414594,0.0
0.36746117,2.435006,-1.0464698,0.0
0.3610455,2.4430046,-1.0504789,0.0
0.35260522,2.4450023,-1.050487,0.0
0.34642214,2.4349992,-1.0444877,0.0
0.34399983,2.460002,-1.0555011,0.0
0.33256942,2.448996,-1.050506,0.0
0.325156,2.4529943,-1.0505141,0.0
0.31473458,2.4449894,-1.0465195,0.0
0.3083135,2.453988,-1.0505291,0.0
0.30286324,2.469988,-1.056541,0.0
0.30065423,2.4789882,-1.0605469,0.0
0.2912363,2.474984,-1.0585533,0.0
0.28385118,2.4769812,-1.0585607,0.0
0.27738336,2.49098,-1.0645725,0.0
0.26696724,2.4819748,-1.0595776,0.0
0.2605909,2.4879727,-1.0615859,0.0
0.254109,2.503971,-1.0685987,0.0
0.24697208,2.4829662,-1.0585958,0.0
0.2434793,2.514967,-1.072613,0.0
0.23307908,2.5039616,-1.0666174,0.0
0.2266887,2.5119586,-1.0706266,0.0
0.21724527,2.5099545,-1.0686342,0.0
0.20784035,2.5039494,-1.0656399,0.0
0.20041007,2.5109463,-1.0676496,0.0
0.19916707,2.530946,-1.0776596,0.0
0.18881375,2.5139403,-1.0686613,0.0
0.18037279,2.516936,-1.0696702,0.0
0.17296582,2.5219321,-1.0716792,0.0
0.16751982,2.54293,-1.0806934,0.0
0.15513217,2.516923,-1.0676931,0.0
0.14865774,2.5359192,-1.0767075,0.0
0.14444344,2.536917,-1.0767118,0.0
0.13506411,2.5269117,-1.071716,0.0
0.12863031,2.541908,-1.0777283,0.0
0.12021093,2.5429034,-1.0777365,0.0
0.113768585,2.5598989,-1.0857499,0.0
0.10437732,2.5508935,-1.0807546,0.0
0.095974006,2.5498886,-1.0797619,0.0
0.093736894,2.5678864,-1.0887719,0.0
0.08331351,2.5558803,-1.0827763,0.0
0.075896695,2.5638754,-1.0857867,0.0
0.06947746,2.5798705,-1.0927997,0.0
0.059035975,2.5698643,-1.087805,0.0
0.050659787,2.564859,-1.0848106,0.0
0.043190293,2.5818527,-1.092825,0.0
0.039030954,2.5748508,-1.088826,0.0
0.030572055,2.5828443,-1.0928373,0.0
0.022194255,2.577839,-1.0898432,0.0
0.014723543,2.596832,-1.0988584,0.0
0.005311925,2.5888264,-1.0938638,0.0
-0.002106153,2.5998197,-1.0998757,0.0
-0.010556238,2.6078126,-1.102887,0.0
-0.013729546,2.61181,-1.1048919,0.0
-0.023179816,2.610803,-1.1039004,0.0
-0.031559832,2.6057975,-1.1009063,0.0
-0.0389886,2.62079,-1.1079198,0.0
-0.048438363,2.619783,-1.1069285,0.0
-0.056819323,2.6147766,-1.1049345,0.0
-0.065281786,2.6277683,-1.1109481,0.0
-0.06950516,2.6327643,-1.1129543,0.0
-0.07791201,2.6337574,-1.1129628,0.0
-0.0863427,2.6407495,-1.1159741,0.0
-0.0937444,2.6537416,-1.1219867,0.0
-0.10318266,2.6507337,-1.1209946,0.0
-0.110625975,2.676724,-1.1320131,0.0
-0.12002061,2.6617177,-1.1260157,0.0
-0.12426313,2.674712,-1.1320255,0.0
-0.13266341,2.6757045,-1.1320341,0.0
-0.14108744,2.6846955,-1.136046,0.0
-0.1494975,2.689687,-1.1380565,0.0
-0.15896854,2.6996765,-1.1430701,0.0
-0.16739017,2.710667,-1.1480831,0.0
-0.17581609,2.7246563,-1.1540972,0.0
-0.18426043,2.7486439,-1.1651157,0.0
-0.18846434,2.7536387,-1.1681219,0.0
-0.19700822,2.8306158,-1.2031629,0.0
-0.20644917,2.8406036,-1.2091764,0.0
-0.21491063,2.8895853,-1.2312053,0.0
-0.22441448,2.9445639,-1.2572379,0.0
-0.23392548,3.0135393,-1.2892762,0.0
-0.24441688,3.04952,-1.3063017,0.0
-0.24968956,3.0905051,-1.325324,0.0
-0.26017958,3.1394825,-1.3483548,0.0
-0.27061823,3.1524673,-1.3543706,0.0
-0.2810497,3.161453,-1.3583845,0.03
-0.2914871,3.180436,-1.3674028,0.04
-0.30191734,3.1964192,-1.3754197,0.04
-0.30818653,3.2254045,-1.3894379,0.14
-0.34527993,4.250124,-1.8679017,0.16
-0.3597357,4.2660985,-1.8759221,0.35
-0.37417677,4.2660766,-1.8759358,0.34
-0.3875837,4.262057,-1.8739469,0.37
-0.40099367,4.263036,-1.8749601,0.34
-0.41543803,4.270012,-1.8779769,0.34
-0.42265737,4.2680016,-1.8769829,0.38
-0.43606278,4.2579827,-1.8729917,0.32
-0.44947314,4.26296,-1.8760067,0.34
-0.4639139,4.264937,-1.8770214,0.37
-0.47732234,4.2659154,-1.8780348,0.34
-0.49176225,4.2658925,-1.8780488,0.34
-0.5051701,4.2668705,-1.8790623,0.36
-0.5185798,4.2598505,-1.8760724,0.35
-0.52579856,4.2628374,-1.8780806,0.36
-0.5392068,4.261816,-1.8780932,0.36
-0.5536444,4.264792,-1.8801086,0.35
-0.56808156,4.266767,-1.8821235,0.38
-0.5814884,4.267745,-1.8821371,0.37
-0.59592545,4.2687206,-1.8831518,0.34
-0.6093356,4.263699,-1.8821628,0.35
-0.61655027,4.268686,-1.8841721,0.36
-0.6309871,4.268661,-1.8851863,0.34
-0.6443984,4.26364,-1.8831975,0.36
-0.65882605,4.271613,-1.887215,0.34
-0.6712172,4.257595,-1.8822217,0.36
-0.68666786,4.2705655,-1.8882424,0.36
-0.6938841,4.2715526,-1.88925,0.38
-0.70729595,4.2665305,-1.8872613,0.33
-0.72070193,4.265507,-1.8872743,0.36
-0.7341122,4.261484,-1.8872861,0.36
-0.7485442,4.2634587,-1.8883014,0.36
-0.76297104,4.2674313,-1.8913175,0.23
-0.77739745,4.2714047,-1.8933336,0.48
-0.78360313,4.261396,-1.8893359,0.33
-0.79498625,4.241381,-1.8813393,0.59
-0.8124595,4.2663426,-1.8933669,0.38
-0.82485557,4.255323,-1.8893752,0.39
-0.8392792,4.2592955,-1.8923914,0.38
-0.8547131,4.271264,-1.8984119,0.37
-0.8671186,4.257245,-1.892419,0.36
-0.8825545,4.2672133,-1.8984386,0.37
-0.89078385,4.2731957,-1.9024495,0.37
-0.9021665,4.2571793,-1.8954546,0.38
-0.91557825,4.253155,-1.8944669,0.32
-0.93202835,4.26712,-1.9024893,0.42
-0.943421,4.2491035,-1.8944939,0.37
-0.95480675,4.234086,-1.8884996,0.23
-0.9732819,4.258044,-1.9015281,0.33
-0.9794858,4.2520337,-1.8985322,0.39
-0.9928971,4.2480083,-1.8985444,0.38
-1.0083219,4.257976,-1.9035643,0.38
-1.0217468,4.249952,-1.9015752,0.37
-1.0351659,4.2439275,-1.8995868,0.37
-1.0495743,4.248897,-1.9036037,0.31
-1.0619863,4.236877,-1.8986119,0.4
-1.0691919,4.2388616,-1.9006202,0.36
-1.0846213,4.2458286,-1.9046391,0.29
-1.0929861,4.2158203,-1.8926362,0.32
-1.1074187,4.2147923,-1.892651,0.42
-1.1238554,4.2267556,-1.8996729,0.49
-1.1342418,4.20774,-1.8926765,0.43
-1.1496724,4.2137065,-1.8966949,0.36
-1.1589103,4.2216854,-1.9007077,0.32
-1.169296,4.20367,-1.8937118,0.39
-1.1837169,4.20464,-1.8957274,0.36
-1.1981229,4.2086086,-1.8987441,0.36
-1.2085081,4.191592,-1.8927487,0.37
-1.2229387,4.1905627,-1.8927637,0.32
-1.2383728,4.1945286,-1.8967816,0.36
-1.2425599,4.181524,-1.8917811,0.37
-1.2559592,4.1804957,-1.8927951,0.32
-1.2734053,4.193455,-1.8998185,0.41
-1.2848119,4.1794353,-1.8948255,0.33
-1.2982208,4.1764073,-1.8948387,0.38
-1.3136616,4.178374,-1.897856,0.35
-1.3240361,4.1653557,-1.8928622,0.36
-1.3302451,4.1603436,-1.8918669,0.34
-1.3456627,4.1663084,-1.8958857,0.41
-1.3570755,4.152288,-1.8908927,0.33
-1.3725091,4.1552534,-1.8939105,0.32
-1.3859235,4.151225,-1.8939235,0.41
-1.3993319,4.1481967,-1.893937,0.43
-1.4117348,4.141171,-1.8929478,0.35
-1.4199432,4.1461515,-1.8959584,0.36
-1.4323596,4.137127,-1.8929688,0.36
-1.4447633,4.1301007,-1.8919796,0.33
-1.4581649,4.1280713,-1.8929935,0.3
-1.4705764,4.120046,-1.891004,0.36
-1.4880162,4.130003,-1.8980267,0.47
-1.4933696,4.100001,-1.8850216,0.0
-1.2529769,3.275809,-1.4834586,0.0
-1.2268103,2.8930147,-1.3092952,0.0
-1.2321926,2.87801,-1.3032962,0.0
-1.2385716,2.8670015,-1.2992998,0.0
-1.2670854,2.91992,-1.3273506,0.03
-1.3418463,3.1066852,-1.4215,0.08
-1.3239441,3.0367515,-1.3874556,0.0
-1.3001596,2.9378426,-1.3403947,0.0
-1.2774076,2.8419313,-1.2943361,0.0
-1.2817893,2.8249295,-1.2873355,0.0
-1.2978525,2.7149432,-1.2423177,0.0
-1.3509117,2.4019783,-1.1152818,0.36
-1.3603394,2.400958,-1.1172928,0.72
-1.3617197,2.3829644,-1.109289,0.59
-1.3724977,2.3659492,-1.1042969,0.38
-1.3758847,2.3529484,-1.0992972,0.55
-1.3803009,2.3409448,-1.095299,0.32
-1.381484,2.333946,-1.0922984,0.31
-1.3878788,2.3279352,-1.0903044,0.33
-1.3983172,2.3289113,-1.0933174,0.46
-1.4127365,2.3398728,-1.101338,0.39
-1.4161136,2.327872,-1.0963386,0.27
-1.4335624,2.3438244,-1.1063645,0.22
-1.4439721,2.3457994,-1.1093776,0.22
-1.4481715,2.34479,-1.1103824,0.32
-1.4585793,2.3467658,-1.1123956,0.38
-1.4670179,2.3427482,-1.1124047,0.16
-1.4674083,2.3237567,-1.1053997,0.21
-1.4747841,2.3207414,-1.1054078,0.21
-1.4882175,2.3277063,-1.1114262,0.26
-1.4715145,2.2777715,-1.0863917,0.26
-1.4697256,2.2637827,-1.0803856,0.3
-1.483141,2.2717476,-1.0864042,0.67
-1.4805079,2.2487657,-1.0763946,0.74
-1.4899379,2.2477438,-1.0784059,0.7
-1.5013461,2.2517152,-1.082421,0.68
-1.4996808,2.2327297,-1.0734137,0.62
-1.5131544,2.2376943,-1.0794315,0.57
-1.5032926,2.211732,-1.0664123,0.77
-1.5197427,2.2236867,-1.0744358,0.4
-1.529124,2.2246633,-1.0774477,0.49
-1.5254985,2.200685,-1.0664366,0.9
-1.5198841,2.172714,-1.0534222,0.99
-1.5252309,2.1677039,-1.0524275,0.99
-1.53768,2.1716714,-1.0574439,0.99
-1.537896,2.162676,-1.0534416,0.99
-1.5482761,2.1656492,-1.0574554,0.99
-1.5717312,2.1895792,-1.0724907,0.79
-1.5811555,2.1885571,-1.0735021,0.36
-1.5774848,2.167577,-1.0644919,0.96
-1.5799166,2.1535788,-1.0594913,0.99
-1.578272,2.135592,-1.0524846,0.99
-1.5864815,2.1415687,-1.0564963,0.99
-1.5989418,2.1445363,-1.0605125,0.99
-1.6123433,2.1514993,-1.0665308,0.91
-1.6237282,2.155469,-1.070546,0.65
-1.634166,2.1554422,-1.0735589,0.42
-1.6375489,2.1454394,-1.0695604,0.44
-1.6539683,2.1563916,-1.0785836,0.3
-1.6501737,2.1414092,-1.071575,0.0
-1.6555701,2.1343997,-1.06958,0.0
-1.6569214,2.1224022,-1.0655787,0.0
-1.6753935,2.1343486,-1.0746045,0.0
-2.9330304,-2.0209072,-1.669885,0.0
-2.8973932,-2.0130484,-1.6539154,0.0
-2.8915918,-2.016073,-1.6519247,0.0
-2.878026,-2.0221293,-1.6479453,0.02
-2.8644302,-2.0271852,-1.6439649,0.12
-2.8538465,-2.03423,-1.6409832,0.18
-2.846275,-2.043262,-1.6410003,0.27
-2.835693,-2.0503066,-1.6380185,0.25
-2.8331268,-2.06232,-1.640033,0.38
-2.8323658,-2.0693252,-1.6410408,0.34
-2.859886,-2.1012235,-1.6600424,0.26
-2.8422713,-2.1032948,-1.6530633,0.52
-2.8337152,-2.112331,-1.6520811,0.31
-2.8250976,-2.1193666,-1.6510972,0.41
-2.8135352,-2.1264145,-1.6481162,0.33
-2.804949,-2.134451,-1.6461332,0.43
-2.8041856,-2.1414554,-1.6481407,0.42
-2.7986064,-2.15148,-1.6481563,0.26
-2.7258868,-2.116759,-1.6112001,0.35
-2.7303133,-2.132745,-1.6172107,0.0
-2.6906738,-2.1198983,-1.5982405,0.0
-2.6851053,-2.1299226,-1.598256,0.0
-2.6845345,-2.142927,-1.602269,0.0
-2.4623632,-2.5058248,-1.621827,0.01
-2.4517794,-2.5118647,-1.6198429,0.07
-2.4472027,-2.5228822,-1.6218569,0.2
-2.451451,-2.5348673,-1.6268628,0.23
-2.4388282,-2.5379138,-1.6238782,0.27
-2.4242518,-2.5409677,-1.6198955,0.13
-2.3925877,-2.5270836,-1.6039156,0.0
-2.398064,-2.548064,-1.6129278,0.0
-2.396473,-2.561071,-1.6159403,0.0
-1.9056405,-3.0017438,-1.6127493,0.1
-1.8850027,-2.9928114,-1.6037618,0.2
-1.8774047,-3.0008347,-1.6047742,0.29
-1.8597822,-2.9958923,-1.5977868,0.38
-1.8512129,-3.0039182,-1.5988002,0.26
-1.828574,-2.9919925,-1.5878122,0.53
-1.8259987,-3.0069983,-1.5928249,0.36
-1.8262022,-3.0159965,-1.5958309,0.47
-1.8407365,-3.0569441,-1.6148461,0.27
-1.8281387,-3.0589836,-1.6128587,0.5
-1.813508,-3.0570302,-1.6078703,0.34
-1.7978854,-3.0540795,-1.6028823,0.41
-1.774245,-3.0401566,-1.5908937,0.48
-1.7566189,-3.0342126,-1.5839055,0.45
-1.7588723,-3.0482032,-1.5899128,0.35
-1.7532835,-3.0592186,-1.5929252,0.41
-1.7376701,-3.0562675,-1.587937,0.39
-1.7411084,-3.0802524,-1.59795,0.36
-1.7305274,-3.0852845,-1.5969627,0.53
-1.7229694,-3.095306,-1.598976,0.4
-1.7123454,-3.0983384,-1.5969874,0.52
-1.7165953,-3.1153219,-1.6049948,0.38
-1.6959572,-3.1043878,-1.5950055,0.6
-1.6994228,-3.130372,-1.6060196,0.34
-1.6838149,-3.1274202,-1.6010312,0.52
-1.6762323,-3.1364412,-1.6030436,0.32
-1.6656091,-3.1394732,-1.6010548,0.52
-1.6469889,-3.1315308,-1.5940657,0.38
-1.6351894,-3.124568,-1.5880712,0.35
-1.6285785,-3.1335864,-1.5890827,0.42
-1.6219887,-3.1436036,-1.5920949,0.52
-1.6204568,-3.1636045,-1.599109,0.39
-1.6068624,-3.163645,-1.5961206,0.44
-1.6103024,-3.189629,-1.6071343,0.44
-1.5946853,-3.185676,-1.602145,0.35
-1.5888996,-3.187693,-1.6011511,0.39
-1.5792909,-3.1927202,-1.6011624,0.46
-1.5707123,-3.2007442,-1.6021748,0.31
-1.5470573,-3.1828177,-1.5891832,0.47
-1.5535544,-3.2167907,-1.6051991,0.42
-1.5288748,-3.1958678,-1.5902065,0.35
-1.503193,-3.1729476,-1.5752137,0.55
-1.5114862,-3.199917,-1.5882236,0.43
-1.5018806,-3.2049437,-1.5882347,0.41
-1.5033352,-3.229934,-1.598249,0.37
-1.4897302,-3.2289736,-1.5942596,0.5
-1.4630165,-3.202057,-1.5772649,0.65
-1.4695272,-3.238029,-1.5942818,0.3
-1.4549364,-3.2360716,-1.5892926,0.49
-1.4490978,-3.235088,-1.5882968,0.4
-1.4395292,-3.2421138,-1.5883088,0.58
-1.4470121,-3.2790837,-1.6053252,0.34
-1.425354,-3.2621486,-1.5943326,0.54
-1.4187858,-3.2741644,-1.5973451,0.34
-1.4071828,-3.2761967,-1.5953556,0.45
-1.4023701,-3.2782094,-1.5953608,0.35
-1.374668,-3.2482944,-1.577365,0.55
-1.3721248,-3.2682965,-1.5843791,0.34
-1.3524622,-3.2533548,-1.5743859,0.54
-1.3468993,-3.267367,-1.5783987,0.3
-1.3373138,-3.2733915,-1.57941,0.45
-1.3307431,-3.2854059,-1.5834222,0.39
-1.3229347,-3.282428,-1.5804266,0.45
-1.3193765,-3.300433,-1.5874401,0.39
-1.3067567,-3.2994683,-1.5834494,0.4
-1.3041812,-3.3184695,-1.5914626,0.36
-1.2895894,-3.3155098,-1.5874723,0.42
-1.2839978,-3.3285215,-1.5914842,0.43
-1.26837,-3.3215654,-1.5854923,0.46
-1.2655996,-3.3295708,-1.5884991,0.41
-1.2519635,-3.3256085,-1.5835074,0.35
-1.2343531,-3.3156579,-1.5765153,0.48
-1.2388351,-3.351636,-1.5925325,0.35
-1.2151622,-3.3267057,-1.5775363,0.44
-1.2065426,-3.3327272,-1.5775464,0.39
-1.1949683,-3.3357563,-1.577557,0.36
-1.1881379,-3.332775,-1.5745606,0.51
-1.1875958,-3.3587692,-1.5855757,0.34
-1.1780058,-3.364792,-1.5865864,0.55
-1.1664128,-3.366822,-1.5845963,0.32
-1.1457351,-3.3458812,-1.5726,0.62
-1.1492168,-3.381862,-1.5886177,0.34
-1.1335762,-3.3729048,-1.5816244,0.46
-1.1338286,-3.3888996,-1.5886331,0.36
-1.1182065,-3.3809414,-1.5826403,0.46
-1.1055853,-3.3789747,-1.5786486,0.44
-1.1040202,-3.4029717,-1.5886631,0.34
-1.088418,-3.3960128,-1.5836707,0.45
-1.0727723,-3.386055,-1.5766768,0.44
-1.0662079,-3.4000673,-1.5816894,0.35
-1.058401,-3.3960886,-1.5776929,0.52
-1.054844,-3.4170907,-1.586707,0.32
-1.0412145,-3.412126,-1.5827141,0.45
-1.0346292,-3.4251387,-1.5867261,0.39
-1.01597,-3.40719,-1.5757297,0.61
-1.0114368,-3.4281952,-1.5837444,0.33
-0.9968002,-3.4202332,-1.5777506,0.58
-0.9939977,-3.4272377,-1.5807564,0.34
-0.98340744,-3.4312623,-1.5807662,0.51
-0.9788381,-3.4502673,-1.5887796,0.39
-0.96420515,-3.4423053,-1.5827857,0.48
-0.9536288,-3.447329,-1.5837959,0.37
-0.93998104,-3.4403641,-1.5778018,0.48
-0.9321559,-3.4343848,-1.5738043,0.4
-0.92158115,-3.4394083,-1.5748144,0.43
-0.9149991,-3.4534194,-1.5798264,0.41
-0.8973514,-3.4364665,-1.5698298,0.47
-0.89277065,-3.4554713,-1.5778428,0.4
-0.88418216,-3.4644887,-1.5798537,0.49
-0.86349356,-3.4365454,-1.5648534,0.41
-0.86377144,-3.4575384,-1.5738641,0.44
-0.8511298,-3.4525692,-1.5698702,0.55
-0.8415613,-3.4605882,-1.5728809,0.36
-0.8228991,-3.4386384,-1.5598823,0.4
-0.8102763,-3.4346685,-1.555889,0.42
-0.8026689,-3.4446824,-1.5598992,0.37
-0.79508466,-3.456696,-1.5639106,0.45
-0.7893075,-3.4587085,-1.5639156,0.48
-0.7766871,-3.4547377,-1.560922,0.44
-0.7700915,-3.4687483,-1.5659336,0.29
-0.75850004,-3.4697738,-1.564942,0.5
-0.7458576,-3.4638035,-1.5609473,0.39
-0.7372763,-3.4738195,-1.563958,0.45
-0.72569764,-3.4758449,-1.5629667,0.36
-0.7229155,-3.4858477,-1.5669737,0.28
-0.7112663,-3.4818745,-1.5639794,0.51
-0.708761,-3.5158691,-1.578998,0.39
-0.69007856,-3.488918,-1.5649968,0.61
-0.6825267,-3.5049295,-1.5710096,0.34
-0.66989046,-3.4989583,-1.5670149,0.59
-0.659279,-3.5009801,-1.5670228,0.34
-0.6534563,-3.4989936,-1.5650256,0.52
-0.6499308,-3.5299916,-1.5780431,0.34
-0.6322671,-3.506036,-1.5660427,0.55
-0.6236536,-3.514052,-1.568052,0.32
-0.6130952,-3.521072,-1.5700623,0.55
-0.60347104,-3.525091,-1.5710703,0.32
-0.5898546,-3.5171216,-1.566075,0.46
-0.5850735,-3.5221303,-1.5670805,0.39
-0.5704214,-3.5071647,-1.5590824,0.48
-0.563861,-3.5271723,-1.5670962,0.36
-0.5461625,-3.4972174,-1.5520928,0.52
-0.53454876,-3.4952416,-1.550099,0.3
-0.5249573,-3.502259,-1.5521084,0.56
-0.52144563,-3.538255,-1.5681278,0.32
-0.5156468,-3.538267,-1.5671314,0.42
-0.503017,-3.531294,-1.5631357,0.48
-0.49343014,-3.5393105,-1.5661455,0.58
-0.48683396,-3.5573182,-1.573158,0.33
-0.47119585,-3.5383549,-1.5631585,0.54
-0.46562725,-3.563358,-1.5741738,0.33
-0.44493705,-3.5194118,-1.5521654,0.58
-0.44415212,-3.539407,-1.5621754,0.32
-0.43354246,-3.541427,-1.5621827,0.52
-0.41992924,-3.5314562,-1.5561861,0.34
-0.41233984,-3.547466,-1.5621982,0.45
-0.4037989,-3.565477,-1.5702116,0.37
-0.38710442,-3.533518,-1.5542065,0.56
-0.38434976,-3.550518,-1.562216,0.3
-0.37371477,-3.5495386,-1.5602217,0.48
-0.36109224,-3.5415645,-1.5562254,0.38
-0.35046765,-3.5415843,-1.5552316,0.48
-0.33686647,-3.5316126,-1.5492349,0.43
-0.32520747,-3.5226364,-1.5442375,0.38
-0.31562138,-3.5316517,-1.5472472,0.52
-0.31490934,-3.5646434,-1.5622628,0.38
-0.2961732,-3.5136917,-1.53825,0.54
-0.28660142,-3.524706,-1.5422605,0.36
-0.2830638,-3.5686998,-1.5622827,0.35
-0.26637068,-3.53074,-1.5442747,0.59
-0.2578237,-3.5507498,-1.5522887,0.3
-0.24718796,-3.548769,-1.5512936,0.51
-0.24039388,-3.5437822,-1.5482951,0.28
-0.23077294,-3.5487978,-1.5503027,0.45
-0.22118461,-3.5588117,-1.5543127,0.39
-0.20754714,-3.5408401,-1.5453119,0.56
-0.19798404,-3.5548527,-1.5513237,0.34
-0.1873568,-3.5538712,-1.550329,0.46
-0.17572626,-3.5468934,-1.5453321,0.45
-0.17194563,-3.5598962,-1.55134,0.28
-0.16035387,-3.5589156,-1.5513458,0.5
-0.14970915,-3.5549347,-1.5483497,0.34
-0.13911894,-3.559951,-1.5503577,0.44
-0.12952797,-3.5709636,-1.5553677,0.42
-0.11893465,-3.5759804,-1.5563756,0.39
