X,Y,Z,Intensity
17.593807,10.586843,-0.83433384,0.24
17.516674,10.57882,-0.8313396,0.22
17.985014,10.939408,-0.86050904,0.38
18.054607,11.059591,-0.8665778,0.4
17.932322,11.062576,-0.8615975,0.3
17.946947,11.149703,-0.8646527,0.48
17.585817,11.003438,-0.8456092,0.29
17.353792,10.896249,-0.8325727,0.38
17.528313,11.0825405,-0.8446702,0.21
17.801752,11.33494,-0.86379665,0.39
17.612513,11.29285,-0.85479724,0.28
16.796728,10.844083,-0.8076225,0.57
17.013206,11.060422,-0.82273394,0.21
17.145742,11.223672,-0.83282286,0.31
17.089598,11.225664,-0.83083296,0.37
17.027273,11.261702,-0.828867,0.39
16.960955,11.294735,-0.8268997,0.48
17.35528,11.637277,-0.853068,0.38
17.359901,11.71939,-0.8561227,0.25
17.43946,11.853587,-0.86320055,0.45
17.264408,11.774445,-0.85417527,0.23
17.156115,11.780431,-0.849197,0.53
17.14974,11.85553,-0.85124904,0.38
17.268261,12.018772,-0.8613406,0.32
17.384779,12.1820135,-0.87043244,0.35
17.362413,12.248096,-0.8714812,0.41
17.47493,12.410334,-0.8805731,0.39
17.502714,12.47142,-0.8836101,0.32
17.522308,12.568551,-0.8876732,0.47
17.509928,12.643645,-0.88972676,0.39
18.359787,13.345754,-0.9450631,0.19
18.929873,13.852543,-0.9833129,0.31
19.07933,14.053836,-0.99542505,0.47
19.35067,14.348278,-1.0155803,0.27
18.072624,13.44581,-0.9361809,0.23
17.964317,13.453792,-0.9322052,0.31
18.333569,13.820349,-0.9583932,0.48
18.466032,14.011623,-0.9695019,0.3
17.74231,13.550855,-0.92631143,0.29
17.913736,13.771174,-0.9404335,0.41
17.880354,13.836245,-0.94148463,0.16
17.657366,13.708026,-0.92843574,0.55
17.51709,13.688962,-0.922448,0.22
17.321878,13.623826,-0.9124382,0.37
17.300488,13.695909,-0.91349256,0.4
17.335037,13.81306,-0.91856813,0.5
18.365551,14.728469,-0.98801714,0.22
18.136362,14.639291,-0.9769972,0.3
17.953342,14.538115,-0.9659605,0.47
17.962906,14.640239,-0.97003025,0.18
16.824705,13.801889,-0.8986565,0.32
16.725399,13.808866,-0.8946805,0.44
17.052622,14.169393,-0.91987205,0.32
17.068178,14.27452,-0.92394334,0.3
17.307697,14.5208845,-0.9410711,0.28
17.266317,14.5789385,-0.94112015,0.34
17.098082,14.529823,-0.9331182,0.4
17.077673,14.605903,-0.93517613,0.25
16.913433,14.558792,-0.92717516,0.39
16.994911,14.721004,-0.93527424,0.47
17.219206,15.011412,-0.95343614,0.18
17.114115,14.967323,-0.94842577,0.34
17.033773,14.992321,-0.9464597,0.36
17.040329,15.093435,-0.9495305,0.27
16.97597,15.132454,-0.9485714,0.48
16.984514,15.23657,-0.95264405,0.2
16.750364,15.123356,-0.94061095,0.54
16.83781,15.29858,-0.94971853,0.32
16.835594,15.344628,-0.950752,0.21
17.14274,15.725161,-0.97496134,0.3
16.989492,15.683053,-0.9679629,0.39
16.870197,15.671991,-0.96397984,0.38
16.786856,15.693979,-0.9610132,0.32
16.769424,15.77706,-0.9630767,0.47
18.520803,17.478584,-1.0869321,0.28
17.263063,16.394913,-1.0034174,0.26
16.823204,16.080397,-0.976284,0.27
16.590076,15.957167,-0.9632449,0.22
16.792324,16.25456,-0.9814164,0.28
16.74193,16.308594,-0.98146635,0.2
16.658583,16.330576,-0.97950035,0.52
16.847075,16.5669,-0.9946306,0.28
17.256996,17.077602,-1.0269113,0.25
17.213583,17.141644,-1.0279671,0.38
17.124237,17.16062,-1.0260004,0.39
17.015919,17.160566,-1.022024,0.34
17.065355,17.319744,-1.0291288,0.41
17.026926,17.390795,-1.0301888,0.29
17.001726,17.418808,-1.0312147,0.36
16.897398,17.422758,-1.0272408,0.42
16.88393,17.518843,-1.0303137,0.45
17.755035,18.538258,-1.0978609,0.22
17.894297,18.802578,-1.1130219,0.41
17.829895,18.852589,-1.1120726,0.27
17.872305,19.017765,-1.1201832,0.45
17.874043,19.079823,-1.1222279,0.25
17.93342,19.265024,-1.1313494,0.29
17.11329,18.501875,-1.0749788,0.35
17.0429,18.54287,-1.0740249,0.38
18.273249,20.00588,-1.1708121,0.29
18.167892,20.017832,-1.1678448,0.26
18.21627,20.198017,-1.1759652,0.49
18.164093,20.20399,-1.1749814,0.31
17.900019,20.03869,-1.1599213,0.23
17.534143,19.754223,-1.1367977,0.25
17.402843,19.732124,-1.1308119,0.4
17.377356,19.82819,-1.1338884,0.3
17.27201,19.83413,-1.1309173,0.3
6.6526184,7.7062693,-0.3155134,0.16
6.695365,7.78036,-0.31955934,0.39
6.6590877,7.7883477,-0.31857693,0.17
6.55095,7.7122183,-0.31254983,0.25
6.6025047,7.8223457,-0.31862172,0.3
6.6510596,7.93047,-0.3236929,0.29
6.5798545,7.896398,-0.320688,0.39
6.6315775,7.9835052,-0.32574132,0.26
6.4715457,7.8432884,-0.31467968,0.28
6.5869617,8.033522,-0.32579526,0.3
6.60257,8.105594,-0.3288479,0.38
6.591243,8.143618,-0.33088177,0.37
6.477129,8.055473,-0.32384765,0.29
6.5246754,8.166596,-0.3289213,0.25
6.444661,8.094485,-0.3238892,0.23
6.4083924,8.100469,-0.32290563,0.26
6.3631396,8.095435,-0.3219162,0.24
6.3238697,8.0984125,-0.31993127,0.32
6.132938,7.907132,-0.30684015,0.0
3.575305,4.6718407,-0.09808312,0.12
6.2573013,8.119386,-0.3189697,0.0
3.5540576,4.6748314,-0.097094655,0.22
3.5338,4.6798244,-0.09710755,0.13
3.5045743,4.6718006,-0.0961129,0.14
3.4843245,4.6757927,-0.09512499,0.17
3.4750433,4.6948028,-0.09614555,0.21
3.446815,4.6877804,-0.09515147,0.14
3.4306934,4.682767,-0.09415401,0.15
3.4064562,4.6807504,-0.09316267,0.16
3.3892052,4.6877456,-0.09317623,0.21
3.3729355,4.697744,-0.093192,0.15
3.3387327,4.680709,-0.09119198,0.13
3.3294501,4.6997185,-0.09221264,0.14
3.3022134,4.693696,-0.09121929,0.13
3.2879536,4.7046957,-0.09123516,0.14
3.268851,4.6936746,-0.09023394,0.14
3.253589,4.703673,-0.09024941,0.14
3.2293425,4.701655,-0.08925837,0.13
3.2101023,4.7046447,-0.089269534,0.16
3.1808648,4.6956186,-0.08727467,0.12
3.1705892,4.712624,-0.088294126,0.16
3.1564798,4.7076106,-0.08729606,0.29
3.1372368,4.7106,-0.08730732,0.2
3.1169722,4.7145886,-0.08631993,0.15
3.0947409,4.712571,-0.086328216,0.13
3.0784822,4.7205653,-0.08634256,0.14
3.0502567,4.7105384,-0.084346645,0.13
3.0310094,4.7135262,-0.08435803,0.14
3.0129058,4.7025056,-0.08335671,0.12
3.0076203,4.7265186,-0.08438007,0.16
2.9813848,4.719494,-0.083386004,0.12
2.9681106,4.7324934,-0.083403446,0.14
2.9418912,4.7234674,-0.08240769,0.13
2.9226396,4.7264543,-0.08241922,0.14
2.901383,4.7274384,-0.08142996,0.13
2.9032192,4.7474537,-0.08244652,0.14
2.8680387,4.7224092,-0.08044113,0.13
2.8537693,4.7334056,-0.08045738,0.16
2.8295383,4.727382,-0.07946353,0.12
2.808296,4.7263646,-0.078472644,0.15
2.799011,4.7453694,-0.079493545,0.28
2.7797637,4.7473545,-0.07950436,0.18
2.7726238,4.7533526,-0.079512954,0.17
2.7533758,4.755338,-0.0785238,0.16
2.7251549,4.742306,-0.07752592,0.17
2.7029138,4.739285,-0.07653391,0.16
2.6826866,4.7372665,-0.07654185,0.1
2.6843638,4.775292,-0.077574,0.15
2.65415,4.7582545,-0.076573744,0.09
2.6340575,4.7412267,-0.075568676,0.09
2.6178133,4.746215,-0.07558084,0.09
2.605537,4.7602124,-0.075598896,0.14
2.5842936,4.7581925,-0.07460744,0.09
2.566041,4.761178,-0.07461888,0.09
2.5477884,4.7641625,-0.07463034,0.0
2.5265598,4.7601404,-0.073637225,0.0
2.5263984,4.7781506,-0.07465284,0.13
2.5031617,4.7721257,-0.07365901,0.09
2.4879007,4.7801156,-0.073673375,0.14
2.4756243,4.794112,-0.07369145,0.09
2.4444242,4.7720695,-0.072687835,0.0
2.4291615,4.780059,-0.07270224,0.0
2.412067,4.7660346,-0.07169863,0.0
2.4097598,4.7980494,-0.07272728,0.13
2.3795664,4.776008,-0.07072331,0.09
2.3672976,4.7890024,-0.07174056,0.0
2.348043,4.7899837,-0.07075098,0.0
2.3477135,4.828003,-0.07278371,0.0
2.31154,4.7939487,-0.07077259,0.0
2.3004224,4.7909355,-0.06977557,0.0
2.2752154,4.776902,-0.068776205,0.0
2.2828562,4.830937,-0.071818545,0.0
2.2626119,4.8289146,-0.070826955,0.0
2.2314343,4.8018684,-0.06881956,0.0
2.2280974,4.836881,-0.07085107,0.0
2.1989174,4.8128386,-0.06884531,0.0
2.1888018,4.8108263,-0.06884871,0.0
2.1785173,4.8288236,-0.06886922,0.0
2.1642392,4.839813,-0.06888577,0.0
2.1440063,4.8357882,-0.068892606,0.0
2.1317296,4.849781,-0.068910696,0.0
2.1134725,4.851761,-0.06892163,0.0
2.1011965,4.8657537,-0.06893971,0.0
2.0920758,4.865743,-0.068944335,0.0
2.0817943,4.883738,-0.06996476,0.0
2.0605617,4.877711,-0.06897047,0.0
2.056232,4.9117203,-0.07100134,0.0
2.0310173,4.896684,-0.06900152,0.0
2.0197482,4.911677,-0.07001986,0.0
2.0134356,4.940681,-0.07104745,0.0
2.0033011,4.9406686,-0.07105259,0.0
1.9840688,4.9376445,-0.07005985,0.0
3.219778,8.004357,-0.23799528,0.0
1.9386322,4.9155793,-0.0680646,0.0
0.8901407,4.819953,-0.04954033,0.0
0.86995107,4.798914,-0.047534708,0.0
0.8527309,4.79088,-0.047537677,0.0
0.8364968,4.7878494,-0.04754402,0.0
0.8241829,4.8098288,-0.04856771,0.0
0.809924,4.8168025,-0.048580743,0.0
0.7936675,4.817772,-0.04859017,0.0
0.78652984,4.8227587,-0.04859784,0.0
0.7683302,4.8077226,-0.047595914,0.0
0.75701976,4.832703,-0.048621234,0.0
0.73880786,4.819667,-0.04762087,0.0
0.72357154,4.819637,-0.047628958,0.0
0.7073245,4.818605,-0.047636803,0.0
0.69303447,4.831578,-0.047654353,0.0
0.6858975,4.836563,-0.048661962,0.0
0.67066103,4.836533,-0.048670013,0.0
0.65440357,4.8375015,-0.047679357,0.0
0.63916665,4.8374705,-0.04768739,0.0
0.62293416,4.833437,-0.047692895,0.0
0.6086464,4.8464084,-0.048710316,0.0
0.5914179,4.838373,-0.047713287,0.0
0.58525765,4.851361,-0.048726395,0.0
0.5710065,4.8573318,-0.048738416,0.0
0.5537869,4.8472958,-0.04773986,0.0
0.53754276,4.8452616,-0.047746852,0.0
0.52228534,4.8492293,-0.047757853,0.0
0.50800544,4.8612,-0.048774354,0.0
0.49570137,4.8851748,-0.049798813,0.0
0.48756087,4.8881574,-0.049805287,0.0
0.470367,4.8721204,-0.048802197,0.0
0.4551107,4.8760877,-0.04881311,0.07
0.43787766,4.8680496,-0.048816048,0.08
0.42263478,4.869016,-0.048824687,0.08
0.4083314,4.8869863,-0.048845503,0.09
0.3931024,4.8849525,-0.04885186,0.09
0.38497543,4.8849344,-0.048856042,0.09
0.36970225,4.892901,-0.048869837,0.15
0.35346135,4.889865,-0.048875943,0.23
0.3382402,4.88583,-0.04888078,0.11
0.32295495,4.896796,-0.048896737,0.15
0.30769962,4.900761,-0.049907472,0.0
0.29048392,4.887722,-0.04890666,0.0
0.28238574,4.8807034,-0.04790563,0.0
0.26905915,4.909673,-0.04993375,0.0
0.25089926,4.878631,-0.04792019,0.0
0.23563966,4.883596,-0.047931608,0.0
0.22038013,4.8885603,-0.048943006,0.0
0.20513687,4.8895245,-0.048951443,0.0
0.19602856,4.880503,-0.047949467,0.0
0.18176205,4.8914695,-0.04896469,0.0
0.16551833,4.8884315,-0.04797068,0.0
0.1502824,4.887395,-0.047977608,0.0
0.13499773,4.899358,-0.048993986,0.0
0.11878308,4.8883195,-0.04799412,0.0
0.1035468,4.8872824,-0.048001006,0.0
0.095411584,4.889263,-0.04800651,0.0
0.0791663,4.8862233,-0.048012435,0.0
0.06391207,4.890186,-0.048022904,0.0
0.048661616,4.8931484,-0.048032627,0.0
0.032422792,4.8881087,-0.048037063,0.0
0.01720288,4.8820705,-0.048040275,0.0
0.0019289441,4.8920326,-0.04805498,0.0
-0.0061891675,4.8890123,-0.048056822,0.0
-0.021475585,4.902973,-0.049074344,0.0
-0.036715288,4.902935,-0.0490818,0.0
-0.05294522,4.8948946,-0.048084013,0.0
-0.06819504,4.897855,-0.049093585,0.0
-0.084500544,4.9138126,-0.04911288,0.0
-0.09967239,4.8917747,-0.048104607,0.0
-0.10786747,4.9137526,-0.049124178,0.0
-0.1230829,4.905713,-0.049125846,0.0
-0.13934441,4.9076715,-0.04913509,0.0
-0.15452573,4.8876324,-0.04812826,0.0
-0.16982353,4.9075913,-0.0491497,0.0
-0.18606219,4.901549,-0.04915323,0.0
-0.2012823,4.8945093,-0.048155565,0.0
-0.20947127,4.916486,-0.050174914,0.0
-0.22465608,4.896446,-0.049168084,0.0
-0.24095975,4.9144025,-0.049188413,0.0
-0.25619626,4.913361,-0.04919489,0.0
-0.2713994,4.89932,-0.04919226,0.0
-0.2876932,4.914275,-0.050210368,0.0
-0.30393293,4.9082317,-0.049213782,0.0
-0.31104702,4.909212,-0.049217794,0.0
-0.32836655,4.929164,-0.050239746,0.0
-0.34357393,4.916122,-0.050237764,0.0
-0.35881028,4.91508,-0.05024411,0.0
-0.37613118,4.937031,-0.051267307,0.0
-0.39029223,4.909992,-0.05025514,0.0
-0.27091667,2.1134827,0.09271484,0.0
-5.7182093,8.215693,-0.30435577,0.38
-5.7594967,8.219496,-0.3053562,0.39
-5.7967577,8.218313,-0.3063531,0.39
-5.817903,8.221212,-0.3073539,0.41
-5.8551626,8.220029,-0.30835065,0.38
-5.8934274,8.219842,-0.30934796,0.39
-5.930685,8.217659,-0.31034374,0.4
-5.9709597,8.219462,-0.31134215,0.41
-6.013246,8.223256,-0.3133418,0.41
-6.050501,8.220071,-0.31433654,0.4
-6.0766716,8.229947,-0.3153418,0.4
-6.1189556,8.23174,-0.31633967,0.32
-6.1541953,8.2265625,-0.3173328,0.42
-6.193459,8.224367,-0.3183277,0.32
-6.240767,8.234137,-0.32033074,0.45
-6.279022,8.230946,-0.3213248,0.32
-6.3152637,8.226762,-0.32231817,0.5
-6.346459,8.240614,-0.32332557,0.24
-6.3827014,8.233429,-0.3243165,0.53
-6.441064,8.257151,-0.3273284,0.26
-6.47127,8.241991,-0.32731375,0.48
-6.5125365,8.240784,-0.32830837,0.28
-6.54978,8.234593,-0.3292995,0.55
-6.595065,8.240368,-0.33129874,0.27
-6.6151934,8.239265,-0.33129558,0.57
-6.6715384,8.255991,-0.3343017,0.27
-6.7017393,8.24083,-0.33428642,0.59
-6.749032,8.246593,-0.33628502,0.28
-6.7832522,8.236414,-0.33627287,0.57
-6.8335586,8.245165,-0.33827314,0.27
-6.8728056,8.23896,-0.3392632,0.52
-6.917057,8.267753,-0.34227952,0.29
-6.946249,8.249592,-0.34226146,0.6
-7.0005713,8.261322,-0.34426305,0.28
-7.0408177,8.257113,-0.34525406,0.54
-7.081064,8.2519045,-0.34624422,0.29
-7.1243258,8.2496805,-0.34823608,0.55
-7.1876874,8.272368,-0.3512444,0.31
-7.201778,8.262289,-0.35123435,0.55
-7.2570977,8.273012,-0.35323423,0.3
-7.293318,8.262818,-0.35422054,0.59
-7.343609,8.267561,-0.35621625,0.33
-7.3858576,8.26334,-0.35720605,0.6
-7.44519,8.278043,-0.35920793,0.34
-7.483417,8.267837,-0.36019343,0.46
-7.512579,8.274692,-0.36119393,0.35
-7.5608535,8.276441,-0.36318702,0.46
-7.6010876,8.268225,-0.3641734,0.34
-7.6473494,8.266982,-0.36616424,0.47
-7.704664,8.27669,-0.3681617,0.36
-7.747908,8.272461,-0.36915043,0.48
-7.7971807,8.273204,-0.37114188,0.38
-7.8313627,8.283031,-0.37214342,0.52
-7.873599,8.276804,-0.3741304,0.37
-7.925883,8.279532,-0.37512255,0.41
-8.016344,8.323088,-0.38014027,0.64
-7.882751,8.130648,-0.36901003,0.0
-7.97924,8.180177,-0.37403122,0.0
-7.974234,8.149179,-0.3720069,0.0
-7.966234,8.090177,-0.3699603,0.0
-7.9783287,8.051083,-0.36892584,0.0
-7.977363,7.9990478,-0.3668834,0.0
-7.984435,7.955977,-0.36584654,0.0
-7.9784474,7.9009657,-0.36380255,0.0
-7.985521,7.857895,-0.36176556,0.0
-7.9664555,7.813961,-0.35973343,0.0
-7.970516,7.7689037,-0.35869536,0.0
-7.98161,7.730814,-0.35766146,0.0
-7.983662,7.684767,-0.35562286,0.0
-7.97969,7.631745,-0.35357973,0.0
-7.9787307,7.583711,-0.35154003,0.0
-7.979782,7.5366664,-0.35050064,0.0
-7.974784,7.5076694,-0.3494776,0.0
-7.9868836,7.4725757,-0.34844556,0.0
-7.983917,7.423551,-0.34640524,0.0
-7.985976,7.377502,-0.3443662,0.0
-8.001091,7.3453927,-0.34433573,0.0
-8.000136,7.2983584,-0.34229642,0.0
-7.997174,7.249333,-0.34025586,0.0
-7.9941874,7.2233267,-0.33923465,0.0
-7.996247,7.1802783,-0.33819786,0.0
-7.998308,7.1372294,-0.33716094,0.0
-8.00037,7.0931807,-0.33512312,0.0
-8.007452,7.0551085,-0.33408907,0.0
-7.9974656,7.0011153,-0.33204567,0.0
-8.011578,6.970011,-0.33101565,0.0
-8.001564,6.9390383,-0.32999176,0.0
-7.987562,6.883064,-0.32794756,0.0
-8.003684,6.8529496,-0.32691768,0.0
-7.999726,6.8059273,-0.3258784,0.0
-8.002794,6.7658753,-0.32384327,0.0
-8.018919,6.7357593,-0.3238131,0.0
-8.031024,6.7036643,-0.32278225,0.0
-8.00495,6.6607666,-0.32075217,0.09
-8.00802,6.6207123,-0.31971678,0.09
-8.009086,6.578668,-0.31768012,0.0
-8.006134,6.534642,-0.31664273,0.0
-8.022257,6.506527,-0.3166139,0.0
-8.014288,6.4575243,-0.3145735,0.0
-8.011337,6.4145,-0.3125368,0.0
-8.005344,6.389509,-0.31151664,0.0
-8.004404,6.347474,-0.31048018,0.0
-8.014506,6.314387,-0.30944833,0.0
-8.011559,6.2713604,-0.30841145,0.0
-8.017647,6.235292,-0.30737802,0.0
-8.02574,6.202215,-0.30634654,0.0
-8.021757,6.1792145,-0.30532742,0.0
-8.02383,6.140164,-0.3042923,0.0
-7.9787292,6.0653396,-0.30023938,0.0
-7.9777927,6.025305,-0.29920417,0.0
-7.986893,5.993222,-0.298173,0.0
-7.981941,5.951207,-0.2971371,0.0
-7.988031,5.9171386,-0.29610494,0.0
-7.982045,5.892147,-0.29508442,0.0
-8.016235,5.879944,-0.29606313,0.0
-8.036377,5.855807,-0.29603532,0.11
-8.031496,5.775752,-0.29296488,0.34
-8.032568,5.738707,-0.29193112,0.43
-8.032639,5.700667,-0.29089677,0.34
-8.022638,5.6746955,-0.28987643,0.41
-8.040773,5.6495676,-0.2898479,0.23
-8.0388365,5.6105366,-0.2888131,0.52
-8.073026,5.597331,-0.28979006,0.36
-8.136311,5.6049848,-0.2917765,0.36
-8.187556,5.6026945,-0.29375765,0.32
-8.240805,5.6023936,-0.29673982,0.34
-8.2930155,5.6191187,-0.29873788,0.34
-8.332216,5.6078854,-0.3007144,0.35
-8.398505,5.61452,-0.30269825,0.36
-8.463788,5.621159,-0.30568224,0.36
-8.515022,5.6178656,-0.30766168,0.37
-8.572276,5.617541,-0.31064165,0.32
-8.643542,5.6451693,-0.31464282,0.39
-8.69076,5.6378946,-0.31561953,0.34
-8.749011,5.6375637,-0.31859878,0.36
-8.814283,5.641197,-0.3215791,0.36
-8.872531,5.639866,-0.32355708,0.36
-8.940809,5.6444836,-0.32653695,0.36
-9.004068,5.6461253,-0.3295157,0.37
-9.053253,5.65786,-0.33150902,0.39
-9.113501,5.656515,-0.33448574,0.32
-9.182775,5.6601243,-0.3374637,0.41
-9.252046,5.663734,-0.34044152,0.39
-9.319309,5.665352,-0.34341803,0.4
-9.389579,5.6689553,-0.34639513,0.36
-9.4448,5.6626325,-0.34836814,0.41
-9.517048,5.686248,-0.3523637,0.36
-9.575275,5.680908,-0.35433626,0.37
-9.64955,5.684488,-0.35731128,0.38
-9.717804,5.6840963,-0.3602845,0.41
-9.787059,5.6847,-0.36325815,0.39
-9.867345,5.6902456,-0.36723223,0.39
-9.931579,5.686873,-0.36920357,0.41
-10.001809,5.7064934,-0.37319535,0.41
-10.084093,5.713028,-0.37716916,0.32
-10.150329,5.708643,-0.37913826,0.43
-10.238626,5.717145,-0.3831113,0.35
-10.308867,5.7147374,-0.38608044,0.43
-10.388135,5.7162814,-0.39004973,0.36
-10.462382,5.7158527,-0.3930189,0.45
-10.537614,5.7354436,-0.3970079,0.35
-10.6088505,5.7320275,-0.399975,0.47
-10.712174,5.7454476,-0.40494582,0.29
-10.7814,5.74004,-0.4079114,0.48
-10.868673,5.7435393,-0.41187832,0.38
-10.950932,5.7430634,-0.4148431,0.39
-11.025148,5.7606554,-0.41882986,0.39
-11.108403,5.7611732,-0.42279497,0.47
-11.208702,5.7696037,-0.42676085,0.29
-11.286939,5.7651424,-0.43072253,0.52
-11.3892355,5.7735605,-0.4346871,0.29
-11.469471,5.7700887,-0.4386486,0.49
-11.569758,5.775512,-0.44361055,0.3
-11.637947,5.787132,-0.44659296,0.48
-11.749256,5.797498,-0.45155495,0.3
-11.8375025,5.795982,-0.45551428,0.48
-11.940785,5.8003855,-0.46047312,0.3
-12.031032,5.797856,-0.4644301,0.49
-12.142326,5.806218,-0.4693891,0.28
-12.227554,5.800712,-0.47334477,0.5
-12.33984,5.830098,-0.47832572,0.29
-12.429072,5.82557,-0.4822803,0.51
-12.544365,5.8329062,-0.48823568,0.3
-12.644618,5.8313174,-0.492188,0.49
-12.764915,5.839625,-0.49814174,0.33
-12.856139,5.8330812,-0.50209236,0.64
-13.130799,5.9095807,-0.51604897,0.0
-13.119772,5.8796024,-0.515021,0.0
-13.232036,5.8809457,-0.51997,0.0
-13.352316,5.885246,-0.52591836,0.0
-13.473593,5.8885393,-0.53086483,0.0
-13.587852,5.888869,-0.53581107,0.0
-13.733176,5.9010324,-0.54275554,0.0
-13.852444,5.9273696,-0.5487283,0.15
-13.951656,5.9187727,-0.5536711,0.0
-14.215236,5.979311,-0.5666128,0.0
-14.285375,5.956865,-0.5695535,0.0
-14.409631,5.9561315,-0.57549244,0.0
-14.540898,5.9583607,-0.5814312,0.0
-14.658132,5.952662,-0.5863674,0.0
-14.769361,5.9710326,-0.59233403,0.0
-14.9998,5.9566517,-0.60220414,0.37
-15.238241,5.942221,-0.6130694,0.18
-15.381507,5.9433756,-0.6199994,0.12
-15.450612,5.9149246,-0.6219317,0.13
-15.678064,5.9746704,-0.6338876,0.09
-15.8022785,5.965922,-0.6398149,0.08
-16.23301,5.9563565,-0.6595859,0.63
-16.308105,5.926865,-0.6625126,0.0
-16.597622,5.9732223,-0.67642,0.1
-16.633665,5.956982,-0.67838216,0.18
-16.687712,5.9186025,-0.67930853,0.34
-24.71191,8.607212,-1.1033977,0.27
-25.230698,8.700274,-1.1292387,0.22
-25.218475,8.608198,-1.1271312,0.65
-25.37957,8.574183,-1.1340035,0.16
-25.574831,8.596055,-1.1439269,0.48
-21.82976,7.256176,-0.944252,0.34
-21.8206,7.178103,-0.94316024,0.33
-21.843496,7.1098557,-0.9430634,0.47
-22.026676,7.093738,-0.9509458,0.33
-23.19142,7.311153,-1.0095946,0.37
-23.203356,7.27402,-1.0095415,0.37
-23.192167,7.19095,-1.0074431,0.39
-22.391634,6.8651867,-0.96446383,0.19
-12.803242,3.8704379,-0.4618587,0.08
-12.819274,3.8322823,-0.46180415,0.15
-12.780213,3.776426,-0.45875698,0.1
-12.78222,3.7553806,-0.45873037,0.09
-12.773211,3.7103622,-0.4576804,0.14
-12.790244,3.6722004,-0.4576249,0.09
-12.813287,3.6360047,-0.4585685,0.16
-12.806281,3.5909743,-0.45751712,0.1
-12.8153,3.5498545,-0.45746186,0.14
-12.830329,3.5117037,-0.45740697,0.1
-12.853366,3.496542,-0.45837596,0.15
-12.847362,3.451505,-0.4573236,0.09
-12.891432,3.4211931,-0.45926246,0.15
-12.902452,3.3810623,-0.4592068,0.17
-12.9284935,3.344849,-0.45914778,0.13
-12.973561,3.313529,-0.46108443,0.35
-12.992591,3.2753525,-0.46202648,0.26
-13.018628,3.261174,-0.4629946,0.19
-13.050675,3.2259254,-0.46393305,0.18
-13.097741,3.1945927,-0.46586806,0.16
-13.127781,3.1583538,-0.46680602,0.31
-13.206888,3.1348436,-0.46973312,0.2
-13.240931,3.0985794,-0.47166857,0.24
-13.2990055,3.0691845,-0.47359937,0.21
-26.8289,6.1614447,-1.1670953,0.2
-26.842682,6.076215,-1.1659734,0.27
-26.879496,5.9968553,-1.1668462,0.29
-27.007423,5.936983,-1.1726931,0.4
-27.262505,5.9033947,-1.1845031,0.2
-27.55262,5.876607,-1.1983018,0.37
-28.74282,6.0367455,-1.2578406,0.43
-28.77773,5.997467,-1.2587672,0.23
-28.874575,5.9227543,-1.2626102,0.0
-44.090652,8.762412,-2.034772,0.32
-44.03806,8.608451,-2.0305882,0.3
-44.08658,8.473917,-2.0313725,0.28
-44.071297,8.399875,-2.0302782,0.4
-44.161865,8.274103,-2.03305,0.24
-34.61901,6.3720455,-1.5479234,0.34
-44.942623,8.129148,-2.0693932,0.21
-45.387535,8.06235,-2.0910404,0.25
-44.84842,7.8211546,-2.0620143,0.2
-34.632347,5.8720665,-1.5432166,0.46
-35.06039,5.8314185,-1.5639102,0.33
-35.538467,5.7964807,-1.5865824,0.28
-36.031544,5.7614517,-1.6102452,0.31
-36.492573,5.717598,-1.6329137,0.34
-37.24285,5.7160816,-1.6694727,0.0
-30.050953,4.5161705,-1.3059762,0.0
-29.993149,4.2680697,-1.3006581,0.0
-31.106464,4.228299,-1.3549484,0.0
-31.100136,4.128155,-1.3538088,0.0
-30.04799,3.2739289,-1.2961973,0.0
-30.304005,3.253351,-1.308016,0.0
-15.826297,1.6535974,-0.5832595,0.1
-15.787213,1.600739,-0.5812082,0.21
-15.777147,1.5497098,-0.5801423,0.31
-15.808106,1.5034423,-0.5810588,0.37
-39.021442,3.5694275,-1.740304,0.16
-39.00096,3.44532,-1.739132,0.34
-38.976707,3.381348,-1.7370515,0.38
-38.937218,3.255351,-1.7348877,0.29
-38.901722,3.1293318,-1.731721,0.27
-38.88824,3.0061839,-1.7305452,0.33
-38.869755,2.8820639,-1.7293707,0.41
-38.884285,2.7607508,-1.7291801,0.29
-38.889046,2.699608,-1.7290856,0.56
-38.88557,2.5774019,-1.7279038,0.6
-38.742027,2.4460213,-1.7207919,0.0
-38.951633,2.336554,-1.7305013,0.0
-39.23626,2.2306406,-1.7441705,0.0
-13.722454,0.6434779,-0.4740683,0.14
-14.230521,0.5562638,-0.4986389,0.62
-14.733612,0.5291848,-0.5232987,0.0
-59.432087,0.1960266,-2.738862,0.0
-27.486889,-1.2690735,-1.202255,0.0
-25.915169,-1.2785684,-1.1223081,0.0
-27.401018,-1.5260738,-1.1985196,0.04
-26.793537,-1.5778328,-1.1682128,0.17
-20.102575,-1.2134898,-0.82668567,0.25
-19.486933,-1.2382454,-0.79634196,0.18
-18.941303,-1.2645837,-0.7680429,0.17
-18.630741,-1.3035268,-0.75290257,0.18
-18.471222,-1.3505751,-0.74486417,0.2
-18.418755,-1.4059929,-0.7429011,0.22
-18.399296,-1.4632158,-0.7419602,0.31
-18.392569,-1.4923096,-0.7419921,0.36
-18.384115,-1.5504688,-0.74105877,0.41
-18.379667,-1.6096044,-0.741129,0.34
-18.354198,-1.6658611,-0.7401827,0.62
-18.353748,-1.7249713,-0.741255,0.36
-18.342283,-1.7821462,-0.740318,0.43
-18.340832,-1.8412623,-0.74138933,0.47
-18.217031,-1.85804,-0.73433465,0.0
-18.342646,-1.9294137,-0.7414979,0.0
-18.342194,-1.988525,-0.7415694,0.0
-18.42779,-2.3847318,-0.74909866,0.0
-30.015717,-4.074059,-1.3461528,0.32
-54.801746,-7.608315,-2.6224127,0.25
-29.954782,-4.2106776,-1.3442732,0.17
-29.882467,-4.2972727,-1.3413285,0.31
-29.875198,-4.392492,-1.3414335,0.32
-29.858925,-4.4867625,-1.3415315,0.21
-29.86867,-4.584884,-1.3426498,0.34
-29.866404,-4.6810737,-1.3437582,0.29
-29.83011,-4.7724595,-1.3428398,0.23
-29.86051,-4.8263764,-1.3439199,0.43
-29.841223,-4.9196625,-1.3440138,0.21
-22.298908,-3.752921,-0.9550597,0.34
-22.326534,-3.8298943,-0.95716494,0.4
-22.299114,-3.8981826,-0.95622635,0.34
-29.823143,-5.305474,-1.3474377,0.17
-22.19722,-4.026026,-0.9523098,0.39
-29.83526,-5.454673,-1.3486125,0.23
-29.850006,-5.5547647,-1.3507334,0.17
-29.75964,-5.635455,-1.3467678,0.51
-22.529673,-4.344599,-0.9728746,0.23
-25.301277,-4.960044,-1.1172684,0.2
-24.921516,-4.968342,-1.0980442,0.21
-24.71393,-5.008661,-1.0889612,0.46
-24.610134,-5.02832,-1.0839193,0.26
-19.695158,-4.093181,-0.82885325,0.18
-19.621626,-4.142712,-0.824864,0.57
-19.468002,-4.1756926,-0.81780684,0.26
-19.419498,-4.2300797,-0.8158381,0.41
-19.514154,-4.31466,-0.8219908,0.31
-19.110216,-4.2900414,-0.80171543,0.34
-24.725428,-5.584618,-1.095605,0.15
-19.75284,-4.532611,-0.83638,0.45
-19.643255,-4.57334,-0.83135784,0.26
-19.173197,-4.5280805,-0.8080187,0.32
-24.475657,-5.855596,-1.0867465,0.39
-24.490314,-5.941659,-1.088849,0.4
-24.614796,-6.0130377,-1.0960034,0.38
-24.881784,-6.160696,-1.1103287,0.21
-17.811787,-4.4781575,-0.7391266,0.34
-17.77526,-4.5294647,-0.7381606,0.37
-17.762764,-4.586639,-0.73821574,0.44
-17.309643,-4.529253,-0.71587396,0.29
-17.26809,-4.5765843,-0.71390027,0.54
-17.375498,-4.634039,-0.72002923,0.31
-17.163708,-4.637313,-0.7099024,0.25
-17.111132,-4.6807013,-0.70791733,0.56
-17.095129,-4.7939897,-0.70903057,0.52
-17.11867,-4.8589597,-0.7111154,0.28
-17.234352,-4.9504237,-0.71728563,0.4
-17.431917,-5.0373898,-0.7285015,0.29
-17.343285,-5.0709767,-0.72448283,0.6
-17.331781,-5.128141,-0.72553706,0.16
-27.321253,-8.156535,-1.2589641,0.14
-27.041473,-8.166227,-1.2447981,0.09
-26.766705,-8.176889,-1.2316362,0.14
-26.43983,-8.168831,-1.2154222,0.09
-26.178732,-8.134334,-1.202222,0.15
-25.91495,-8.142924,-1.1900647,0.1
-25.615091,-8.137709,-1.1748703,0.14
-25.333261,-8.137392,-1.1616921,0.23
-25.075462,-8.142941,-1.1495352,0.25
-24.814648,-8.145504,-1.136373,0.11
-24.570852,-8.151971,-1.1252257,0.14
-24.313711,-8.109435,-1.1120198,0.16
-24.070906,-8.113892,-1.0998708,0.22
-22.487272,-7.741723,-1.0174901,0.46
-23.33442,-8.114286,-1.0644051,0.12
-21.891363,-7.693196,-0.988064,0.36
-22.354515,-7.894767,-1.0135617,0.28
-21.849163,-7.795616,-0.9871412,0.28
-21.699461,-7.8195467,-0.9810706,0.32
-21.96355,-7.9932585,-0.99641347,0.23
-21.868956,-8.037894,-0.9923984,0.55
-21.806417,-8.093357,-0.9904144,0.25
-21.752895,-8.15177,-0.98943895,0.27
-21.7612,-8.193788,-0.9904863,0.22
-21.755774,-8.270946,-0.99156,0.2
-21.780403,-8.35894,-0.9946635,0.31
-21.766962,-8.433139,-0.9957288,0.19
-21.763538,-8.511285,-0.9968042,0.23
-21.742079,-8.582527,-0.9968611,0.18
-21.752678,-8.665597,-0.99895006,0.23
-21.760992,-8.709618,-0.9999988,0.19
-21.767586,-8.791708,-1.002084,0.22
-21.765163,-8.870849,-1.0031602,0.2
-21.75072,-8.946053,-1.0042248,0.21
-21.737276,-9.021251,-1.0052897,0.2
-21.754896,-9.109285,-1.007387,0.21
-21.730425,-9.17954,-1.0084398,0.18
-21.77481,-9.238369,-1.0115256,0.13
-21.742327,-9.306667,-1.011571,0.18
-21.582558,-9.3196335,-1.0044805,0.48
-21.426792,-9.333578,-0.9973933,0.45
-18.68119,-8.215095,-0.8455376,0.25
-18.489288,-8.201207,-0.8364007,0.38
-18.54795,-8.2970085,-0.8405315,0.44
-18.520155,-8.320207,-0.8405362,0.24
-18.212976,-8.252919,-0.82427305,0.44
-18.135317,-8.286428,-0.8212554,0.3
-18.267153,-8.416848,-0.83046645,0.48
-20.035852,-9.302751,-0.9314625,0.23
-18.19604,-8.524428,-0.82952404,0.42
-18.145443,-8.570796,-0.8285358,0.52
-18.677988,-8.857086,-0.85915506,0.21
-19.583706,-9.3585005,-0.9122216,0.19
-17.73576,-8.55118,-0.8092515,0.37
-17.682146,-8.594561,-0.80725807,0.44
-17.826021,-8.733918,-0.81748426,0.24
-17.737322,-8.76048,-0.81345177,0.56
-17.718798,-8.821678,-0.81449777,0.24
-19.70805,-9.842484,-0.92876,0.38
-19.680534,-9.906741,-0.92880225,0.52
-19.643997,-9.967044,-0.9288347,0.23
-18.248972,-9.336315,-0.8503291,0.45
-18.331718,-9.451998,-0.8564917,0.16
-19.686768,-10.224167,-0.93610245,0.53
-19.71311,-10.277087,-0.93916893,0.31
-19.698631,-10.349277,-0.9402263,0.49
-19.706211,-10.433352,-0.94230914,0.29
-16.567421,-8.849469,-0.76277184,0.5
-16.458637,-8.859119,-0.7577095,0.36
-16.3328,-8.858853,-0.7526267,0.58
-16.236038,-8.873439,-0.7485768,0.32
-16.133009,-8.85101,-0.74248827,0.48
-16.02621,-8.858644,-0.7384252,0.39
-15.989608,-8.9049225,-0.73744404,0.47
-15.999124,-8.975965,-0.7405161,0.46
-15.979568,-9.032156,-0.7405551,0.55
-16.005135,-9.113118,-0.74364656,0.65
-15.87903,-9.075801,-0.737529,0.38
-15.776232,-9.08341,-0.7324681,0.2
-15.684461,-9.096961,-0.7294199,0.38
-15.579653,-9.102579,-0.72435576,0.23
-15.471834,-9.10621,-0.7202877,0.18
-15.381059,-9.118753,-0.7162391,0.4
-15.289279,-9.130301,-0.71218884,0.24
-15.2022705,-9.111781,-0.70811427,0.19
-15.110486,-9.122328,-0.70406294,0.41
-15.004657,-9.123941,-0.6999942,0.25
-14.897816,-9.123561,-0.69492286,0.25
-14.813046,-9.137068,-0.69187874,0.27
-14.709212,-9.137669,-0.6878103,0.26
-14.61841,-9.145204,-0.68375665,0.27
-14.542421,-9.130624,-0.6796929,0.27
-14.45864,-9.142121,-0.6766474,0.25
-14.345766,-9.134763,-0.6715656,0.0
-6.3835506,-4.142257,-0.18976189,0.0
-6.330709,-4.1365514,-0.18772423,0.07
-6.3129835,-4.1536736,-0.18673058,0.09
-6.31833,-4.1856794,-0.18876566,0.09
-13.507721,-8.940339,-0.62983173,0.37
-13.414889,-8.940873,-0.62577015,0.53
-13.340107,-8.952315,-0.6237304,0.37
-13.249273,-8.952836,-0.61967015,0.48
-13.174487,-8.963278,-0.61662936,0.36
-13.125781,-8.990589,-0.61562103,0.53
-13.129029,-9.024612,-0.61665344,0.54
-13.124465,-9.081709,-0.6177011,0.54
-13.163057,-9.170596,-0.6218058,0.71
-13.080242,-9.175074,-0.618754,0.42
-13.009457,-9.186492,-0.61571646,0.27
-12.939677,-9.198904,-0.6136805,0.28
-12.851846,-9.199406,-0.6096217,0.3
-12.782829,-9.179774,-0.6065579,0.29
-12.713055,-9.192186,-0.60352176,0.27
-12.642259,-9.201599,-0.6014822,0.27
-12.563443,-9.206051,-0.59843296,0.32
-12.481613,-9.207519,-0.59437895,0.29
-12.3957615,-9.205002,-0.59131867,0.29
-12.360869,-9.210206,-0.5892996,0.27
-12.279028,-9.209669,-0.58624375,0.29
-12.202207,-9.213107,-0.58319473,0.3
-12.139431,-9.226478,-0.5811639,0.27
-12.055583,-9.223948,-0.5781048,0.28
-11.962694,-9.21346,-0.57403266,0.32
-11.912963,-9.235765,-0.57201827,0.26
-11.850961,-9.218096,-0.56896085,0.29
-11.777132,-9.220513,-0.56591284,0.3
-11.713343,-9.230884,-0.5638784,0.28
-11.641528,-9.235292,-0.56083345,0.28
-11.5707035,-9.238693,-0.5587881,0.29
-11.505906,-9.247067,-0.55575126,0.28
-11.436089,-9.251462,-0.5537075,0.28
-11.378092,-9.234769,-0.5506536,0.29
-11.302246,-9.233192,-0.54760057,0.25
-11.2274,-9.231609,-0.5445481,0.16
-10.929703,-9.047078,-0.5261869,0.22
-10.828753,-9.0226145,-0.5220971,0.69
-10.772967,-9.033938,-0.5200688,0.32
-10.694097,-9.026369,-0.51700854,0.46
-10.663194,-9.029545,-0.5159902,0.29
-10.59034,-9.025946,-0.5129374,0.5
-10.533545,-9.035272,-0.51090664,0.34
-10.455676,-9.027695,-0.507847,0.44
-10.388834,-9.027065,-0.50480074,0.44
-10.335051,-9.038375,-0.50277364,0.38
-6.384685,-5.663874,-0.23620434,0.28
-6.347705,-5.6490626,-0.23516738,0.27
-6.355089,-5.692063,-0.2362109,0.27
-6.3795295,-5.748982,-0.23927774,0.18
-10.2496395,-9.22503,-0.50587326,0.41
-6.1784105,-5.642984,-0.22805405,0.27
-6.129551,-5.634242,-0.22601506,0.27
-6.11667,-5.640319,-0.22501232,0.32
-6.114003,-5.673363,-0.22604029,0.13
-6.033016,-5.63577,-0.22195496,0.32
-6.013285,-5.6538935,-0.22195864,0.21
-7.279966,-6.8620863,-0.31184664,0.25
-5.9838524,-5.698093,-0.22197941,0.25
-5.929967,-5.683371,-0.21993192,0.29
-5.8809247,-5.6546116,-0.21687499,0.29
-5.8742476,-5.684674,-0.21789756,0.29
-5.830395,-5.677905,-0.21586357,0.28
-5.801615,-5.6860676,-0.2148525,0.29
-5.7868996,-5.7081647,-0.21586277,0.29
-5.7541013,-5.7123446,-0.21484555,0.21
-5.756454,-5.750364,-0.21588075,0.46
-5.698362,-5.7106433,-0.2118085,0.23
-5.64648,-5.6959095,-0.20976238,0.27
-5.6528506,-5.73791,-0.21180362,0.28
-5.60498,-5.726156,-0.20976268,0.26
-5.570168,-5.727344,-0.20774153,0.33
-5.552432,-5.7454534,-0.20774618,0.29
-5.5295024,-5.7405715,-0.20672727,0.32
-5.49871,-5.745739,-0.20671217,0.27
-5.469918,-5.751897,-0.20569922,0.26
-5.4531865,-5.771001,-0.20570533,0.38
-5.425399,-5.778154,-0.20469387,0.25
-5.3996196,-5.7872972,-0.20468542,0.29
-5.379876,-5.803415,-0.20368692,0.3
-5.3679957,-5.809482,-0.20368463,0.29
-5.3321676,-5.80767,-0.20266016,0.28
-5.322464,-5.83374,-0.20367672,0.3
-5.3197875,-5.866779,-0.2047038,0.31
-5.276933,-5.857998,-0.20266873,0.3
-5.256176,-5.8721175,-0.20266771,0.28
-5.229396,-5.8802643,-0.20165765,0.29
-5.284829,-5.95903,-0.20676146,0.27
-5.2751384,-5.987101,-0.20777951,0.26
-5.2383,-5.983291,-0.20575257,0.27
-5.2044826,-5.983468,-0.20473099,0.22
-5.1676464,-5.979657,-0.20370406,0.33
-5.1579466,-6.006727,-0.20372115,0.34
-5.119095,-5.999924,-0.20269033,0.29
-5.1051993,-6.002999,-0.20168406,0.32
-5.0804176,-6.0121336,-0.20167598,0.27
-5.061676,-6.029242,-0.20167863,0.29
-5.044941,-6.0483418,-0.20168425,0.29
-5.0211635,-6.058471,-0.20167764,0.3
-5.0205092,-6.0964994,-0.20270972,0.29
-4.992709,-6.1016464,-0.20169622,0.3
-4.9948936,-6.1236496,-0.2027164,0.26
-4.983182,-6.1487255,-0.2037302,0.32
-4.9523716,-6.1508856,-0.20271216,0.29
-4.940668,-6.1769614,-0.20372678,0.27
-4.9319644,-6.2050242,-0.20374498,0.27
-4.9031696,-6.210174,-0.20373075,0.27
-4.9085345,-6.255174,-0.2057723,0.27
-4.9097204,-6.2771816,-0.20679167,0.27
-4.8849463,-6.2873144,-0.20578417,0.26
-4.886303,-6.329333,-0.20782046,0.31
-4.8655405,-6.3434467,-0.20781888,0.29
-4.828696,-6.3376303,-0.20579012,0.25
-4.8159823,-6.362709,-0.20680295,0.39
-4.8171644,-6.384716,-0.20782217,0.33
-4.8124905,-6.4197598,-0.2088485,0.24
-4.796757,-6.440852,-0.20885593,0.36
-4.7790184,-6.4599514,-0.20986035,0.3
-4.7864156,-6.5119433,-0.21190856,0.29
-4.7676635,-6.5290475,-0.21191059,0.26
-4.75898,-6.5611086,-0.2129316,0.35
-4.7571483,-6.580128,-0.21394622,0.29
-4.741411,-6.601218,-0.21395345,0.3
-4.737746,-6.639257,-0.21598259,0.33
-4.7431355,-6.690257,-0.21802832,0.3
-4.728422,-6.7153444,-0.21803941,0.26
-4.715713,-6.742421,-0.21905343,0.36
-4.6868978,-6.7455664,-0.21803713,0.33
-4.6991615,-6.7865267,-0.2200789,0.33
-4.6944933,-6.8245687,-0.22210711,0.27
-4.6918373,-6.865603,-0.22313906,0.34
-4.6791306,-6.8936796,-0.22415371,0.32
-4.6764784,-6.9357133,-0.22618638,0.3
-4.6778574,-6.9847307,-0.22822736,0.33
-4.6871057,-7.0227036,-0.23026446,0.32
-4.6904855,-7.0737123,-0.23230825,0.29
-4.694889,-7.1287174,-0.23435593,0.3
-4.6821737,-7.1567926,-0.23537031,0.39
-4.668471,-7.185873,-0.23638482,0.3
-4.680924,-7.2538443,-0.23944815,0.3
-4.670239,-7.287912,-0.24046859,0.36
-4.6865225,-7.336855,-0.24351898,0.29
-4.690928,-7.3938594,-0.24556787,0.34
-4.7003713,-7.4598436,-0.24862732,0.29
-4.695715,-7.502885,-0.2506588,0.35
-4.6830173,-7.5349603,-0.25167605,0.29
-4.671328,-7.5690317,-0.25269553,0.32
-4.6928587,-7.656966,-0.25678036,0.29
-4.7051363,-7.7039266,-0.25982615,0.39
-4.6813664,-7.719047,-0.25982225,0.25
-4.710948,-7.820948,-0.2649234,0.41
-4.7224097,-7.8939238,-0.2679892,0.29
-4.7298527,-7.9619164,-0.2710482,0.28
-4.7503886,-8.0528555,-0.27613422,0.36
-4.794078,-8.1827,-0.2822666,0.3
-4.8134046,-8.243632,-0.28632787,0.37
-4.9769096,-8.577989,-0.30470294,0.0
-17.162422,-29.518476,-1.5454832,0.21
-17.119019,-29.658749,-1.5505507,0.34
-17.084679,-29.81498,-1.5566367,0.27
-16.840893,-29.606058,-1.5412934,0.29
-17.570383,-30.992151,-1.6218714,0.22
-16.686165,-29.65982,-1.5402102,0.11
-8.211734,-14.808113,-0.6637878,0.29
-8.16094,-14.82736,-0.66376424,0.33
-8.109127,-14.84261,-0.66273695,0.33
-8.047254,-14.841901,-0.66169024,0.32
-8.0163145,-14.841045,-0.6606665,0.33
-7.9645023,-14.856295,-0.65963924,0.33
-7.908658,-14.863559,-0.6586029,0.32
-7.8508034,-14.86783,-0.6575629,0.32
-7.807049,-14.898045,-0.6575527,0.18
-7.1548157,-13.776687,-0.5912316,0.37
-7.108014,-13.792909,-0.59120905,0.53
-7.0710073,-13.774074,-0.58916765,0.52
-7.0282373,-13.79828,-0.5891541,0.48
-6.9763913,-13.80352,-0.5881196,0.5
-6.925559,-13.811757,-0.5870882,0.49
-6.88177,-13.8319645,-0.5870709,0.48
-6.829925,-13.837204,-0.5860365,0.52
-6.776065,-13.83845,-0.5849976,0.48
-6.75215,-13.84356,-0.58498377,0.51
-6.698295,-13.845807,-0.58394563,0.52
-6.649459,-13.854031,-0.5829156,0.44
-6.6026473,-13.868247,-0.5828916,0.53
-6.5508037,-13.873484,-0.5818572,0.5
-6.496935,-13.872726,-0.58081686,0.46
-6.4760475,-13.884824,-0.5808104,0.54
-6.425197,-13.889054,-0.57977605,0.54
-6.3763714,-13.899276,-0.5787476,0.52
-6.3315697,-13.916481,-0.57872725,0.57
-6.2776976,-13.9147215,-0.5776862,0.5
-6.2248325,-13.914957,-0.5766474,0.52
-6.1830535,-13.938149,-0.57663375,0.62
-6.151067,-13.924288,-0.5755999,0.5
-6.1082892,-13.947484,-0.57558554,0.49
-6.0624757,-13.96169,-0.5755623,0.59
-6.0085955,-13.957927,-0.57351977,0.46
-5.9607677,-13.96814,-0.5734921,0.5
-5.913943,-13.979348,-0.5724659,0.56
-5.8630843,-13.981572,-0.57143015,0.5
-5.846239,-14.00465,-0.5724348,0.46
-5.794364,-14.002876,-0.5713953,0.54
-5.7414923,-14.001106,-0.57035506,0.55
-5.699707,-14.023293,-0.57034075,0.58
-5.6468353,-14.021522,-0.56930053,0.52
-5.5979877,-14.026734,-0.5682685,0.54
-5.558224,-14.054911,-0.56926006,0.58
-5.527244,-14.042042,-0.56822777,0.5
-5.4763727,-14.04126,-0.5671899,0.5
-5.4325776,-14.0604515,-0.5671718,0.61
-5.379684,-14.053677,-0.566128,0.52
-5.3358893,-14.072866,-0.5661101,0.62
-5.2931004,-14.094052,-0.5660943,0.39
-5.240203,-14.086275,-0.56504977,0.5
-5.221337,-14.10436,-0.5650493,0.53
-5.1724854,-14.108566,-0.5640165,0.41
-5.1165686,-14.0948,-0.5629655,0.5
-5.080835,-14.131956,-0.56396663,0.59
-5.0299654,-14.131169,-0.56292886,0.53
-4.975057,-14.119398,-0.5608801,0.71
-4.9561763,-14.134478,-0.56187737,0.28
-4.906314,-14.135687,-0.56084186,0.52
-4.854421,-14.1289015,-0.559799,0.71
-4.8096094,-14.14409,-0.55977744,0.25
-4.758733,-14.141299,-0.55873823,0.73
-4.220707,-12.70632,-0.48029336,0.36
-4.6741457,-14.182653,-0.55870694,0.33
-4.6391053,-14.152793,-0.5566595,0.71
-4.591248,-14.15599,-0.55662704,0.23
-4.5555234,-14.196141,-0.5576305,0.47
-4.512737,-14.218318,-0.5576156,0.5
-4.4689255,-14.234497,-0.5585956,0.55
-4.4170175,-14.223707,-0.55655,0.53
-4.36714,-14.220908,-0.5555118,0.7
-4.3442326,-14.228002,-0.5555003,0.32
-4.29638,-14.232194,-0.55546874,0.65
-4.257621,-14.263352,-0.5564634,0.37
-4.2067285,-14.256556,-0.5554216,0.54
-4.162922,-14.273732,-0.5554024,0.52
-4.1180997,-14.286912,-0.5553796,0.54
-4.0651884,-14.274121,-0.55333203,0.52
-4.048333,-14.29719,-0.5543367,0.62
-4.000472,-14.299378,-0.55430377,0.51
-3.9536216,-14.304564,-0.5532737,0.46
-3.9108233,-14.324734,-0.5542576,0.59
-3.8589106,-14.311936,-0.5522108,0.55
-3.8201602,-14.34609,-0.55420786,0.59
-3.7921817,-14.333198,-0.55317825,0.5
-3.7453275,-14.33738,-0.5521476,0.49
-3.7045565,-14.365541,-0.55313885,0.6
-3.6506212,-14.345748,-0.5510857,0.55
-3.60985,-14.373907,-0.552077,0.56
-3.561977,-14.373091,-0.55204207,0.53
-3.5120735,-14.363282,-0.5499992,0.5
-3.4972665,-14.40034,-0.55201554,0.64
-3.4463573,-14.388534,-0.55097055,0.54
-3.4005206,-14.397708,-0.55094445,0.5
-3.3567107,-14.414875,-0.5509257,0.55
-3.2996976,-14.373089,-0.54785454,0.71
-3.5643892,-15.7121525,-0.6180165,0.25
-3.2140968,-14.413413,-0.5488229,0.67
-3.190175,-14.416503,-0.5488081,0.3
-3.1433086,-14.417677,-0.5487756,0.55
-3.1005077,-14.437839,-0.5487598,0.33
-3.0546587,-14.444008,-0.54873174,0.58
-3.0078123,-14.450182,-0.548703,0.39
-2.966027,-14.475337,-0.5496917,0.5
-2.9191532,-14.47451,-0.5486579,0.5
-2.89319,-14.465605,-0.54763305,0.44
-2.846336,-14.469777,-0.54760295,0.46
-2.7984416,-14.462952,-0.5465642,0.46
-2.7546375,-14.482111,-0.54754716,0.38
-2.7118382,-14.503267,-0.5475324,0.31
-2.9000912,-15.741608,-0.61156154,0.38
-2.8832905,-15.783669,-0.6135799,0.32
-2.8354774,-15.802842,-0.61455977,0.5
-2.7897038,-15.834006,-0.61554974,0.27
-2.7398498,-15.841185,-0.6155195,0.49
-2.6940863,-15.875349,-0.6165117,0.3
-2.6411576,-15.860537,-0.6154635,0.53
-2.5943806,-15.890704,-0.6164521,0.34
-2.3511791,-14.593556,-0.5493447,0.82
-2.5196004,-15.901968,-0.61640733,0.36
-2.4687371,-15.906146,-0.61637443,0.48
-2.420925,-15.926314,-0.61635524,0.37
-2.3700433,-15.925492,-0.61631876,0.5
-2.320199,-15.935666,-0.616291,0.39
-2.2962852,-15.943749,-0.61628,0.52
-2.2454252,-15.948926,-0.616248,0.4
-2.1904569,-15.921115,-0.6141894,0.68
-2.0648518,-15.387551,-0.5867176,0.16
-2.0958588,-15.97044,-0.61615866,0.44
-2.0480623,-15.995603,-0.6171433,0.65
-1.9712462,-15.995864,-0.6160899,0.38
-1.920347,-15.990037,-0.6160502,0.48
-1.8725595,-16.018196,-0.6170371,0.35
-1.8196306,-16.002377,-0.61598897,0.53
-1.7718216,-16.024534,-0.6169717,0.32
-1.7209574,-16.028704,-0.6169394,0.49
-1.6690577,-16.021877,-0.61589855,0.36
-1.6431026,-16.016964,-0.6158771,0.48
-1.5942715,-16.032125,-0.6158542,0.35
-1.545467,-16.055286,-0.61683714,0.3
-1.3654487,-14.744905,-0.54977405,0.52
-1.3195965,-14.751056,-0.5497473,0.49
-1.2716854,-14.738212,-0.5487056,0.46
-1.2518494,-14.770276,-0.54971516,0.59
-1.2039684,-14.76643,-0.54968,0.48
-1.1581092,-14.770578,-0.5496519,0.48
-1.1132972,-14.7897215,-0.5506354,0.55
-1.0664139,-14.7858715,-0.5496011,0.57
-1.0216012,-14.805014,-0.5505846,0.61
-0.9737139,-14.799166,-0.55054826,0.5
-0.9507807,-14.800238,-0.5505336,0.5
-0.90495384,-14.814383,-0.55051297,0.73
-0.85908735,-14.816527,-0.5504838,0.39
-0.8132502,-14.82767,-0.5504612,0.51
-0.7674189,-14.840812,-0.55143994,0.56
-0.7205387,-14.837958,-0.5514067,0.5
-0.6747553,-14.866099,-0.55239636,0.59
-0.65180886,-14.86317,-0.552379,0.47
-0.60492563,-14.859315,-0.5513451,0.48
-0.55912185,-14.881454,-0.55233055,0.57
-0.51222557,-14.873598,-0.55229396,0.48
-0.46539858,-14.887739,-0.5532731,0.46
-0.41961548,-14.916878,-0.55426365,0.54
-0.37266946,-14.89302,-0.55321574,0.56
-0.349807,-14.9170885,-0.5542178,0.56
-0.30292946,-14.915228,-0.55418575,0.52
-0.25721216,-14.966364,-0.5561921,0.7
-0.20911373,-14.89151,-0.55210745,0.32
-0.18411897,-16.18254,-0.6180079,0.34
-0.13323714,-16.181692,-0.6179737,0.37
-0.08238257,-16.189842,-0.6179459,0.36
-0.057435904,-16.187916,-0.61792815,0.36
-0.0066018105,-16.203064,-0.6189054,0.36
0.04425929,-16.209211,-0.6188764,0.36
0.09507919,-16.229359,-0.6198574,0.33
0.14596747,-16.226507,-0.6198221,0.38
0.19682944,-16.23265,-0.6207932,0.36
0.22276798,-16.232725,-0.62077636,0.36
0.27362105,-16.241873,-0.6207497,0.36
0.32445136,-16.259016,-0.6217288,0.36
0.37626237,-16.282162,-0.62271154,0.36
0.4261937,-16.265303,-0.62166727,0.36
0.47802845,-16.28045,-0.62264454,0.36
0.5288831,-16.28959,-0.6236181,0.35
0.5548135,-16.292664,-0.62360364,0.35
0.6066688,-16.30081,-0.623576,0.35
0.6575128,-16.31395,-0.6245526,0.36
0.70937425,-16.320093,-0.6245237,0.35
0.7612334,-16.327234,-0.62549555,0.35
0.8121199,-16.325373,-0.6254618,0.35
0.8639432,-16.345514,-0.6264429,0.36
0.88987714,-16.347586,-0.6264279,0.35
0.94270444,-16.365728,-0.62740713,0.36
0.99454826,-16.378868,-0.6283835,0.34
1.0454383,-16.376003,-0.6283493,0.34
1.098294,-16.384144,-0.62932163,0.34
1.1501439,-16.395283,-0.62929684,0.34
1.1760678,-16.40135,-0.6302847,0.34
1.2288947,-16.42049,-0.63126504,0.35
1.2807909,-16.414627,-0.6312284,0.35
1.3336266,-16.430763,-0.6322067,0.35
1.3854913,-16.4369,-0.6321786,0.36
1.4383461,-16.446037,-0.63315207,0.35
1.4912039,-16.454172,-0.6341249,0.35
1.5190905,-16.473244,-0.6351209,0.2
1.3468828,-14.006823,-0.50950676,0.43
1.3839718,-13.926916,-0.5054289,0.34
1.4054729,-13.699972,-0.49425828,0.33
1.4464042,-13.676075,-0.49321732,0.5
1.4873251,-13.656177,-0.49217924,0.36
1.5068173,-13.429226,-0.48001036,0.3
1.5248224,-13.40327,-0.47898176,0.46
1.5735376,-13.456389,-0.48198995,0.36
1.6163882,-13.461494,-0.48296833,0.43
1.6318921,-13.228531,-0.47079822,0.41
1.678649,-13.266645,-0.47279736,0.43
1.7312806,-13.350773,-0.47782487,0.28
1.7633718,-13.2668495,-0.4737484,0.45
1.7764584,-13.21088,-0.47070226,0.4
1.8055986,-13.107947,-0.46561462,0.38
1.8494165,-13.124052,-0.46660054,0.42
1.8853941,-13.081137,-0.46455047,0.3
1.9233195,-13.058224,-0.4645131,0.51
1.97009,-13.091334,-0.4665092,0.32
1.993973,-13.10839,-0.46750733,0.43
2.0377905,-13.125493,-0.4684942,0.4
2.063931,-13.02155,-0.46340826,0.38
2.1097195,-13.048656,-0.464401,0.45
2.1683059,-13.150793,-0.47043785,0.39
2.22198,-13.220918,-0.4744556,0.34
2.2372808,-13.055946,-0.4663345,0.36
2.2601776,-13.068998,-0.46733063,0.57
2.2902286,-12.997064,-0.4632649,0.28
2.326173,-12.966142,-0.46222392,0.5
2.3719792,-12.986243,-0.46421227,0.37
2.4138377,-12.987337,-0.46418992,0.46
2.4616225,-13.015443,-0.4661827,0.35
2.5064418,-13.031542,-0.46716905,0.43
2.553018,-13.166651,-0.474235,0.29
2.5879822,-13.127726,-0.47218952,0.48
2.6426878,-13.186847,-0.4761996,0.31
2.6983743,-13.254971,-0.48021528,0.52
2.7451952,-13.270071,-0.48120004,0.31
2.7969449,-13.314184,-0.4842017,0.44
2.82283,-13.33124,-0.48519915,0.42
2.8864462,-13.426381,-0.49022883,0.32
2.9352462,-13.451486,-0.49221933,0.48
3.0710192,-13.875801,-0.51443136,0.33
3.0635054,-13.633766,-0.5022728,0.56
10.057877,-44.776794,-2.1224027,0.11
10.230648,-44.88617,-2.1293721,0.16
10.226542,-44.544136,-2.1121392,0.29
10.22225,-43.89008,-2.0796926,0.22
10.349494,-43.811344,-2.077561,0.27
10.459915,-43.66156,-2.0703912,0.14
10.415923,-42.88141,-2.0318832,0.47
10.555996,-42.867695,-2.0327895,0.24
10.676263,-42.776936,-2.029655,0.18
10.723517,-42.68302,-2.0255625,0.29
10.847735,-42.61027,-2.0234382,0.21
11.01454,-42.703617,-2.0294025,0.2
10.790093,-41.28903,-1.9575711,0.0
11.107441,-41.96773,-1.9948455,0.14
10.896739,-40.647175,-1.9270712,0.16
10.945932,-40.57427,-1.9239926,0.44
11.274219,-41.27999,-1.9632794,0.13
11.312147,-40.914024,-1.9450086,0.4
11.406563,-40.75519,-1.9388458,0.23
11.543598,-40.751457,-1.9407636,0.18
11.627093,-40.559593,-1.9325852,0.31
11.766112,-40.561863,-1.9345063,0.18
11.734966,-40.21576,-1.9162904,0.24
11.824377,-40.05591,-1.910131,0.18
11.436672,-38.28994,-1.8191622,0.16
11.490306,-38.032,-1.8069578,0.41
11.574684,-37.87914,-1.8008072,0.22
11.710647,-37.898396,-1.8037432,0.32
11.82974,-37.86361,-1.8036528,0.25
11.894748,-37.86173,-1.804615,0.21
11.841149,-37.27854,-1.7752542,0.29
11.8619585,-36.940525,-1.7590165,0.15
11.810284,-36.384346,-1.7316736,0.19
12.021667,-36.644768,-1.7467302,0.47
12.165549,-36.695034,-1.7516843,0.2
12.100473,-36.30385,-1.7314596,0.29
12.282085,-36.4682,-1.7424693,0.27
12.472646,-36.655567,-1.7544895,0.2
12.607603,-36.67481,-1.7574286,0.47
12.736609,-36.67303,-1.7593573,0.25
12.842762,-36.6082,-1.7582569,0.3
13.120778,-37.03176,-1.783387,0.0
7.312262,-20.46261,-0.89356196,0.0
7.4496713,-19.57664,-0.85392076,0.0
7.585502,-19.562853,-0.8558454,0.0
7.591661,-18.869688,-0.82240003,0.0
8.622029,-20.78377,-0.9321234,0.0
7.83555,-18.708012,-0.8191822,0.0
7.7154403,-18.259706,-0.7959559,0.0
8.033456,-17.905058,-0.7855886,0.0
8.119258,-17.945192,-0.7895749,0.0
8.569322,-18.789093,-0.83789563,0.0
8.901802,-18.811558,-0.84576106,0.0
8.833135,-17.93015,-0.8032522,0.03
14.618945,-29.387957,-1.4527225,0.39
14.509845,-28.937647,-1.4294933,0.21
13.96353,-27.627445,-1.3579309,0.23
13.241879,-25.990892,-1.2672467,0.39
14.2720585,-27.804909,-1.3729023,0.18
14.381013,-27.802046,-1.3748522,0.37
14.348337,-27.632936,-1.3667631,0.27
13.811838,-26.39177,-1.2982409,0.24
13.883909,-26.327833,-1.2971706,0.37
13.966935,-26.28592,-1.2971091,0.34
14.093797,-26.32409,-1.3020774,0.29
14.190774,-26.306198,-1.3030248,0.42
14.40232,-26.500536,-1.3170516,0.0
14.325777,-26.260342,-1.3049395,0.0
8.19073,-14.870096,-0.65069395,0.0
8.232267,-14.045746,-0.61520517,0.0
8.268362,-13.757634,-0.6040298,0.26
8.283369,-13.685613,-0.6009841,0.27
8.294386,-13.606581,-0.59793615,0.0
8.634711,-13.352773,-0.595679,0.0
3.5346136,-5.376274,-0.11806953,0.0
3.5524466,-5.3672824,-0.1180618,0.0
8.953984,-13.337058,-0.6035646,0.43
9.011853,-13.334108,-0.60554415,0.32
9.209328,-13.581438,-0.6216117,0.19
9.338044,-13.587557,-0.62457323,0.0
15.132325,-21.3946,-1.1148291,0.33
15.195332,-21.34262,-1.1147794,0.45
15.222428,-21.237577,-1.1117133,0.26
15.272464,-21.167574,-1.1096587,0.33
15.343448,-21.125607,-1.1106123,0.25
15.328639,-20.966488,-1.1035321,0.4
15.45042,-21.064653,-1.110544,0.31
15.370764,-20.818424,-1.0984392,0.36
15.450722,-20.789467,-1.0993977,0.3
15.583554,-20.831604,-1.1053765,0.29
15.685463,-20.830685,-1.1083429,0.3
15.606787,-20.592455,-1.0962431,0.39
15.654817,-20.520443,-1.0941901,0.21
14.679099,-19.176727,-1.0107999,0.4
15.566218,-20.20615,-1.0790546,0.25
15.303929,-19.73661,-1.0528938,0.36
15.063579,-19.301111,-1.0277442,0.18
15.393969,-19.598576,-1.0497947,0.41
15.014902,-18.991846,-1.0136007,0.36
14.479152,-18.194857,-0.96535814,0.23
14.535077,-18.206905,-0.9673474,0.29
15.262634,-18.99703,-1.0215284,0.43
15.527184,-19.203377,-1.0385532,0.31
15.499345,-19.046236,-1.0304824,0.3
14.712054,-17.961845,-0.96317214,0.24
14.706147,-17.839743,-0.9581132,0.29
14.753093,-17.839775,-0.9600997,0.55
15.3559675,-18.452673,-1.0032288,0.19
15.113534,-18.044184,-0.979097,0.43
